45.100000 -106.400000 3.953541
45.400000 -106.400000 3.955229
45.700000 -106.400000 3.959966
46.000000 -106.400000 3.962319
46.300000 -106.400000 3.956086
46.600000 -106.400000 3.945660
46.900000 -106.400000 3.934636
47.200000 -106.400000 3.929778
47.500000 -106.400000 3.929101
47.800000 -106.400000 3.932661
48.100000 -106.400000 3.936791
48.400000 -106.400000 3.938512
48.700000 -106.400000 3.938756
31.600000 -106.100000 3.765835
31.900000 -106.100000 3.751967
32.200000 -106.100000 3.733333
32.500000 -106.100000 3.716849
32.800000 -106.100000 3.700975
33.100000 -106.100000 3.695527
33.400000 -106.100000 3.698416
33.700000 -106.100000 3.703603
34.000000 -106.100000 3.708884
34.300000 -106.100000 3.712577
34.600000 -106.100000 3.714401
34.900000 -106.100000 3.708233
35.200000 -106.100000 3.695245
35.500000 -106.100000 3.674898
35.800000 -106.100000 3.650893
36.100000 -106.100000 3.630994
36.400000 -106.100000 3.622103
36.700000 -106.100000 3.623795
37.000000 -106.100000 3.632146
37.300000 -106.100000 3.644786
37.600000 -106.100000 3.663220
37.900000 -106.100000 3.680062
38.200000 -106.100000 3.693224
38.500000 -106.100000 3.703637
38.800000 -106.100000 3.711668
39.100000 -106.100000 3.718444
39.400000 -106.100000 3.723110
39.700000 -106.100000 3.724365
40.000000 -106.100000 3.726004
40.300000 -106.100000 3.734827
40.600000 -106.100000 3.752599
40.900000 -106.100000 3.781685
41.200000 -106.100000 3.815390
41.500000 -106.100000 3.845550
41.800000 -106.100000 3.871689
42.100000 -106.100000 3.891772
42.400000 -106.100000 3.903817
42.700000 -106.100000 3.907499
43.000000 -106.100000 3.911833
43.300000 -106.100000 3.918533
43.600000 -106.100000 3.924701
43.900000 -106.100000 3.927056
44.200000 -106.100000 3.932971
44.500000 -106.100000 3.940512
44.800000 -106.100000 3.949983
45.100000 -106.100000 3.957848
45.400000 -106.100000 3.963454
45.700000 -106.100000 3.968944
46.000000 -106.100000 3.969255
46.300000 -106.100000 3.962346
46.600000 -106.100000 3.947344
46.900000 -106.100000 3.934501
47.200000 -106.100000 3.925285
47.500000 -106.100000 3.922806
47.800000 -106.100000 3.927542
48.100000 -106.100000 3.930873
48.400000 -106.100000 3.932586
48.700000 -106.100000 3.932218
31.300000 -105.800000 3.784376
31.600000 -105.800000 3.778138
31.900000 -105.800000 3.765343
32.200000 -105.800000 3.749977
32.500000 -105.800000 3.733478
32.800000 -105.800000 3.715502
33.100000 -105.800000 3.707595
33.400000 -105.800000 3.707653
33.700000 -105.800000 3.716337
34.000000 -105.800000 3.724762
34.300000 -105.800000 3.732412
34.600000 -105.800000 3.736407
34.900000 -105.800000 3.732710
35.200000 -105.800000 3.720573
35.500000 -105.800000 3.700197
35.800000 -105.800000 3.672555
36.100000 -105.800000 3.648555
36.400000 -105.800000 3.635400
36.700000 -105.800000 3.634409
37.000000 -105.800000 3.639152
37.300000 -105.800000 3.650801
37.600000 -105.800000 3.666069
37.900000 -105.800000 3.685145
38.200000 -105.800000 3.702456
38.500000 -105.800000 3.718501
38.800000 -105.800000 3.732613
39.100000 -105.800000 3.744008
39.400000 -105.800000 3.752368
39.700000 -105.800000 3.757036
40.000000 -105.800000 3.761831
40.300000 -105.800000 3.767571
40.600000 -105.800000 3.778811
40.900000 -105.800000 3.800318
41.200000 -105.800000 3.828616
41.500000 -105.800000 3.855808
41.800000 -105.800000 3.876931
42.100000 -105.800000 3.894802
42.400000 -105.800000 3.904253
42.700000 -105.800000 3.906999
43.000000 -105.800000 3.912603
43.300000 -105.800000 3.919908
43.600000 -105.800000 3.926519
43.900000 -105.800000 3.929481
44.200000 -105.800000 3.933200
44.500000 -105.800000 3.938011
44.800000 -105.800000 3.945924
45.100000 -105.800000 3.958427
45.400000 -105.800000 3.970672
45.700000 -105.800000 3.975480
46.000000 -105.800000 3.973387
46.300000 -105.800000 3.962543
46.600000 -105.800000 3.947707
46.900000 -105.800000 3.930756
47.200000 -105.800000 3.919647
47.500000 -105.800000 3.915792
47.800000 -105.800000 3.919135
48.100000 -105.800000 3.922757
48.400000 -105.800000 3.924405
48.700000 -105.800000 3.925256
31.000000 -105.500000 3.786462
31.300000 -105.500000 3.786629
31.600000 -105.500000 3.785943
31.900000 -105.500000 3.782761
32.200000 -105.500000 3.775054
32.500000 -105.500000 3.761337
32.800000 -105.500000 3.743110
33.100000 -105.500000 3.728385
33.400000 -105.500000 3.728461
33.700000 -105.500000 3.736419
34.000000 -105.500000 3.748702
34.300000 -105.500000 3.758603
34.600000 -105.500000 3.761435
34.900000 -105.500000 3.757673
35.200000 -105.500000 3.746150
35.500000 -105.500000 3.724316
35.800000 -105.500000 3.697010
36.100000 -105.500000 3.672179
36.400000 -105.500000 3.655761
36.700000 -105.500000 3.650673
37.000000 -105.500000 3.654108
37.300000 -105.500000 3.661898
37.600000 -105.500000 3.676993
37.900000 -105.500000 3.694767
38.200000 -105.500000 3.713040
38.500000 -105.500000 3.731102
38.800000 -105.500000 3.748421
39.100000 -105.500000 3.763961
39.400000 -105.500000 3.778806
39.700000 -105.500000 3.789121
40.000000 -105.500000 3.795995
40.300000 -105.500000 3.800866
40.600000 -105.500000 3.805097
40.900000 -105.500000 3.818326
41.200000 -105.500000 3.840162
41.500000 -105.500000 3.861783
41.800000 -105.500000 3.879908
42.100000 -105.500000 3.892851
42.400000 -105.500000 3.899419
42.700000 -105.500000 3.900963
43.000000 -105.500000 3.905842
43.300000 -105.500000 3.912200
43.600000 -105.500000 3.918932
43.900000 -105.500000 3.922155
44.200000 -105.500000 3.930006
44.500000 -105.500000 3.934010
44.800000 -105.500000 3.943329
45.100000 -105.500000 3.959311
45.400000 -105.500000 3.971351
45.700000 -105.500000 3.975612
46.000000 -105.500000 3.970407
46.300000 -105.500000 3.957852
46.600000 -105.500000 3.941355
46.900000 -105.500000 3.926516
47.200000 -105.500000 3.915240
47.500000 -105.500000 3.910768
47.800000 -105.500000 3.912223
48.100000 -105.500000 3.915572
48.400000 -105.500000 3.918937
48.700000 -105.500000 3.919931
30.700000 -105.200000 3.786626
31.000000 -105.200000 3.786938
31.300000 -105.200000 3.789586
31.600000 -105.200000 3.796377
31.900000 -105.200000 3.803166
32.200000 -105.200000 3.805420
32.500000 -105.200000 3.796095
32.800000 -105.200000 3.775339
33.100000 -105.200000 3.760640
33.400000 -105.200000 3.754541
33.700000 -105.200000 3.766676
34.000000 -105.200000 3.780446
34.300000 -105.200000 3.787426
34.600000 -105.200000 3.788326
34.900000 -105.200000 3.780873
35.200000 -105.200000 3.767788
35.500000 -105.200000 3.746983
35.800000 -105.200000 3.721562
36.100000 -105.200000 3.697815
36.400000 -105.200000 3.680296
36.700000 -105.200000 3.671106
37.000000 -105.200000 3.670778
37.300000 -105.200000 3.679214
37.600000 -105.200000 3.691605
37.900000 -105.200000 3.708720
38.200000 -105.200000 3.726495
38.500000 -105.200000 3.744530
38.800000 -105.200000 3.761042
39.100000 -105.200000 3.777434
39.400000 -105.200000 3.794265
39.700000 -105.200000 3.808511
40.000000 -105.200000 3.818611
40.300000 -105.200000 3.824037
40.600000 -105.200000 3.828148
40.900000 -105.200000 3.834277
41.200000 -105.200000 3.848379
41.500000 -105.200000 3.864535
41.800000 -105.200000 3.877773
42.100000 -105.200000 3.886814
42.400000 -105.200000 3.891077
42.700000 -105.200000 3.890218
43.000000 -105.200000 3.893850
43.300000 -105.200000 3.899024
43.600000 -105.200000 3.904116
43.900000 -105.200000 3.909312
44.200000 -105.200000 3.923107
44.500000 -105.200000 3.933694
44.800000 -105.200000 3.944848
45.100000 -105.200000 3.959777
45.400000 -105.200000 3.970311
45.700000 -105.200000 3.971038
46.000000 -105.200000 3.962614
46.300000 -105.200000 3.949324
46.600000 -105.200000 3.932830
46.900000 -105.200000 3.919943
47.200000 -105.200000 3.912152
47.500000 -105.200000 3.907037
47.800000 -105.200000 3.908146
48.100000 -105.200000 3.912177
48.400000 -105.200000 3.915572
48.700000 -105.200000 3.919212
30.400000 -104.900000 3.790028
30.700000 -104.900000 3.789163
31.000000 -104.900000 3.789077
31.300000 -104.900000 3.795028
31.600000 -104.900000 3.808584
31.900000 -104.900000 3.824822
32.200000 -104.900000 3.834817
32.500000 -104.900000 3.831188
32.800000 -104.900000 3.813356
33.100000 -104.900000 3.794741
33.400000 -104.900000 3.792908
33.700000 -104.900000 3.802582
34.000000 -104.900000 3.814589
34.300000 -104.900000 3.816775
34.600000 -104.900000 3.808865
34.900000 -104.900000 3.798492
35.200000 -104.900000 3.783730
35.500000 -104.900000 3.765045
35.800000 -104.900000 3.742974
36.100000 -104.900000 3.722952
36.400000 -104.900000 3.704209
36.700000 -104.900000 3.692910
37.000000 -104.900000 3.689915
37.300000 -104.900000 3.696832
37.600000 -104.900000 3.710807
37.900000 -104.900000 3.727354
38.200000 -104.900000 3.744771
38.500000 -104.900000 3.761450
38.800000 -104.900000 3.775973
39.100000 -104.900000 3.789743
39.400000 -104.900000 3.805356
39.700000 -104.900000 3.820282
40.000000 -104.900000 3.832539
40.300000 -104.900000 3.842351
40.600000 -104.900000 3.844723
40.900000 -104.900000 3.847315
41.200000 -104.900000 3.853866
41.500000 -104.900000 3.862505
41.800000 -104.900000 3.871077
42.100000 -104.900000 3.877438
42.400000 -104.900000 3.878266
42.700000 -104.900000 3.875577
43.000000 -104.900000 3.878513
43.300000 -104.900000 3.882297
43.600000 -104.900000 3.887198
43.900000 -104.900000 3.893012
44.200000 -104.900000 3.913131
44.500000 -104.900000 3.930569
44.800000 -104.900000 3.944670
45.100000 -104.900000 3.959957
45.400000 -104.900000 3.967614
45.700000 -104.900000 3.966777
46.000000 -104.900000 3.957355
46.300000 -104.900000 3.941947
46.600000 -104.900000 3.927509
46.900000 -104.900000 3.915038
47.200000 -104.900000 3.908278
47.500000 -104.900000 3.904489
47.800000 -104.900000 3.906276
48.100000 -104.900000 3.909979
48.400000 -104.900000 3.915581
48.700000 -104.900000 3.918923
30.400000 -104.600000 3.792200
30.700000 -104.600000 3.791203
31.000000 -104.600000 3.794571
31.300000 -104.600000 3.803280
31.600000 -104.600000 3.821532
31.900000 -104.600000 3.842577
32.200000 -104.600000 3.858752
32.500000 -104.600000 3.859054
32.800000 -104.600000 3.844044
33.100000 -104.600000 3.831293
33.400000 -104.600000 3.828605
33.700000 -104.600000 3.840374
34.000000 -104.600000 3.845822
34.300000 -104.600000 3.837865
34.600000 -104.600000 3.822866
34.900000 -104.600000 3.807954
35.200000 -104.600000 3.793473
35.500000 -104.600000 3.777525
35.800000 -104.600000 3.762343
36.100000 -104.600000 3.744557
36.400000 -104.600000 3.728981
36.700000 -104.600000 3.715917
37.000000 -104.600000 3.710856
37.300000 -104.600000 3.718667
37.600000 -104.600000 3.733618
37.900000 -104.600000 3.752305
38.200000 -104.600000 3.768376
38.500000 -104.600000 3.782362
38.800000 -104.600000 3.792185
39.100000 -104.600000 3.801895
39.400000 -104.600000 3.815039
39.700000 -104.600000 3.829600
40.000000 -104.600000 3.842868
40.300000 -104.600000 3.853408
40.600000 -104.600000 3.855874
40.900000 -104.600000 3.853931
41.200000 -104.600000 3.854709
41.500000 -104.600000 3.859204
41.800000 -104.600000 3.862195
42.100000 -104.600000 3.866581
42.400000 -104.600000 3.864851
42.700000 -104.600000 3.859554
43.000000 -104.600000 3.860267
43.300000 -104.600000 3.864238
43.600000 -104.600000 3.866714
43.900000 -104.600000 3.877707
44.200000 -104.600000 3.901505
44.500000 -104.600000 3.922767
44.800000 -104.600000 3.940585
45.100000 -104.600000 3.957655
45.400000 -104.600000 3.964754
45.700000 -104.600000 3.962947
46.000000 -104.600000 3.953182
46.300000 -104.600000 3.940624
46.600000 -104.600000 3.923955
46.900000 -104.600000 3.914467
47.200000 -104.600000 3.908568
47.500000 -104.600000 3.908565
47.800000 -104.600000 3.909584
48.100000 -104.600000 3.913818
48.400000 -104.600000 3.918442
48.700000 -104.600000 3.919746
29.500000 -104.300000 3.780982
29.800000 -104.300000 3.786177
30.100000 -104.300000 3.792794
30.400000 -104.300000 3.795967
30.700000 -104.300000 3.799176
31.000000 -104.300000 3.804136
31.300000 -104.300000 3.813884
31.600000 -104.300000 3.832757
31.900000 -104.300000 3.853333
32.200000 -104.300000 3.868378
32.500000 -104.300000 3.872854
32.800000 -104.300000 3.863519
33.100000 -104.300000 3.856165
33.400000 -104.300000 3.858925
33.700000 -104.300000 3.866081
34.000000 -104.300000 3.866291
34.300000 -104.300000 3.848549
34.600000 -104.300000 3.830026
34.900000 -104.300000 3.813203
35.200000 -104.300000 3.800557
35.500000 -104.300000 3.789928
35.800000 -104.300000 3.779063
36.100000 -104.300000 3.766939
36.400000 -104.300000 3.753620
36.700000 -104.300000 3.741764
37.000000 -104.300000 3.736961
37.300000 -104.300000 3.743555
37.600000 -104.300000 3.761716
37.900000 -104.300000 3.779835
38.200000 -104.300000 3.794843
38.500000 -104.300000 3.803483
38.800000 -104.300000 3.808419
39.100000 -104.300000 3.814503
39.400000 -104.300000 3.824549
39.700000 -104.300000 3.838114
40.000000 -104.300000 3.850216
40.300000 -104.300000 3.860903
40.600000 -104.300000 3.861225
40.900000 -104.300000 3.859305
41.200000 -104.300000 3.858774
41.500000 -104.300000 3.857637
41.800000 -104.300000 3.858740
42.100000 -104.300000 3.859488
42.400000 -104.300000 3.856650
42.700000 -104.300000 3.848760
43.000000 -104.300000 3.848500
43.300000 -104.300000 3.851700
43.600000 -104.300000 3.859823
43.900000 -104.300000 3.872085
44.200000 -104.300000 3.898790
44.500000 -104.300000 3.919492
44.800000 -104.300000 3.939597
45.100000 -104.300000 3.955292
45.400000 -104.300000 3.961950
45.700000 -104.300000 3.960222
46.000000 -104.300000 3.951338
46.300000 -104.300000 3.938805
46.600000 -104.300000 3.925842
46.900000 -104.300000 3.916701
47.200000 -104.300000 3.917257
47.500000 -104.300000 3.918446
47.800000 -104.300000 3.922713
48.100000 -104.300000 3.926323
48.400000 -104.300000 3.924191
48.700000 -104.300000 3.924840
29.500000 -104.000000 3.782962
29.800000 -104.000000 3.787938
30.100000 -104.000000 3.796331
30.400000 -104.000000 3.803657
30.700000 -104.000000 3.810755
31.000000 -104.000000 3.816602
31.300000 -104.000000 3.826451
31.600000 -104.000000 3.841895
31.900000 -104.000000 3.857534
32.200000 -104.000000 3.868802
32.500000 -104.000000 3.874142
32.800000 -104.000000 3.872009
33.100000 -104.000000 3.870791
33.400000 -104.000000 3.876324
33.700000 -104.000000 3.881225
34.000000 -104.000000 3.873477
34.300000 -104.000000 3.854519
34.600000 -104.000000 3.832597
34.900000 -104.000000 3.819220
35.200000 -104.000000 3.808621
35.500000 -104.000000 3.802004
35.800000 -104.000000 3.798180
36.100000 -104.000000 3.790050
36.400000 -104.000000 3.780092
36.700000 -104.000000 3.772593
37.000000 -104.000000 3.766395
37.300000 -104.000000 3.774243
37.600000 -104.000000 3.789553
37.900000 -104.000000 3.806384
38.200000 -104.000000 3.816530
38.500000 -104.000000 3.820756
38.800000 -104.000000 3.822141
39.100000 -104.000000 3.825015
39.400000 -104.000000 3.835049
39.700000 -104.000000 3.846041
40.000000 -104.000000 3.856201
40.300000 -104.000000 3.864798
40.600000 -104.000000 3.866474
40.900000 -104.000000 3.864970
41.200000 -104.000000 3.865035
41.500000 -104.000000 3.863952
41.800000 -104.000000 3.860345
42.100000 -104.000000 3.858960
42.400000 -104.000000 3.852168
42.700000 -104.000000 3.843889
43.000000 -104.000000 3.843669
43.300000 -104.000000 3.849302
43.600000 -104.000000 3.861935
43.900000 -104.000000 3.879248
44.200000 -104.000000 3.903465
44.500000 -104.000000 3.924420
44.800000 -104.000000 3.942027
45.100000 -104.000000 3.956473
45.400000 -104.000000 3.963480
45.700000 -104.000000 3.959700
46.000000 -104.000000 3.953774
46.300000 -104.000000 3.941783
46.600000 -104.000000 3.927493
46.900000 -104.000000 3.920869
47.200000 -104.000000 3.921827
47.500000 -104.000000 3.929360
47.800000 -104.000000 3.934621
48.100000 -104.000000 3.937989
48.400000 -104.000000 3.935478
48.700000 -104.000000 3.928620
29.500000 -103.700000 3.788258
29.800000 -103.700000 3.793760
30.100000 -103.700000 3.803138
30.400000 -103.700000 3.814319
30.700000 -103.700000 3.823005
31.000000 -103.700000 3.831617
31.300000 -103.700000 3.838756
31.600000 -103.700000 3.850012
31.900000 -103.700000 3.860360
32.200000 -103.700000 3.866975
32.500000 -103.700000 3.874950
32.800000 -103.700000 3.875435
33.100000 -103.700000 3.880446
33.400000 -103.700000 3.885539
33.700000 -103.700000 3.887715
34.000000 -103.700000 3.879417
34.300000 -103.700000 3.859324
34.600000 -103.700000 3.839967
34.900000 -103.700000 3.826181
35.200000 -103.700000 3.818974
35.500000 -103.700000 3.817629
35.800000 -103.700000 3.818463
36.100000 -103.700000 3.815643
36.400000 -103.700000 3.809179
36.700000 -103.700000 3.802680
37.000000 -103.700000 3.800351
37.300000 -103.700000 3.804638
37.600000 -103.700000 3.817169
37.900000 -103.700000 3.828552
38.200000 -103.700000 3.832491
38.500000 -103.700000 3.833493
38.800000 -103.700000 3.833112
39.100000 -103.700000 3.836744
39.400000 -103.700000 3.845321
39.700000 -103.700000 3.856539
40.000000 -103.700000 3.865230
40.300000 -103.700000 3.871196
40.600000 -103.700000 3.873386
40.900000 -103.700000 3.874919
41.200000 -103.700000 3.875395
41.500000 -103.700000 3.874766
41.800000 -103.700000 3.871218
42.100000 -103.700000 3.865699
42.400000 -103.700000 3.857917
42.700000 -103.700000 3.846906
43.000000 -103.700000 3.843418
43.300000 -103.700000 3.852796
43.600000 -103.700000 3.868304
43.900000 -103.700000 3.886681
44.200000 -103.700000 3.912008
44.500000 -103.700000 3.934752
44.800000 -103.700000 3.952370
45.100000 -103.700000 3.965686
45.400000 -103.700000 3.969057
45.700000 -103.700000 3.969730
46.000000 -103.700000 3.960876
46.300000 -103.700000 3.950922
46.600000 -103.700000 3.937077
46.900000 -103.700000 3.929774
47.200000 -103.700000 3.930725
47.500000 -103.700000 3.934404
47.800000 -103.700000 3.941475
48.100000 -103.700000 3.944045
48.400000 -103.700000 3.939543
29.200000 -103.400000 3.782290
29.500000 -103.400000 3.790673
29.800000 -103.400000 3.799438
30.100000 -103.400000 3.811299
30.400000 -103.400000 3.823997
30.700000 -103.400000 3.838211
31.000000 -103.400000 3.846720
31.300000 -103.400000 3.853861
31.600000 -103.400000 3.860461
31.900000 -103.400000 3.865423
32.200000 -103.400000 3.872809
32.500000 -103.400000 3.879027
32.800000 -103.400000 3.885077
33.100000 -103.400000 3.887437
33.400000 -103.400000 3.892016
33.700000 -103.400000 3.891345
34.000000 -103.400000 3.883489
34.300000 -103.400000 3.867979
34.600000 -103.400000 3.849997
34.900000 -103.400000 3.836101
35.200000 -103.400000 3.830150
35.500000 -103.400000 3.832989
35.800000 -103.400000 3.840208
36.100000 -103.400000 3.841009
36.400000 -103.400000 3.838376
36.700000 -103.400000 3.835546
37.000000 -103.400000 3.834067
37.300000 -103.400000 3.837988
37.600000 -103.400000 3.844475
37.900000 -103.400000 3.848745
38.200000 -103.400000 3.847804
38.500000 -103.400000 3.844011
38.800000 -103.400000 3.844720
39.100000 -103.400000 3.849350
39.400000 -103.400000 3.859937
39.700000 -103.400000 3.872764
40.000000 -103.400000 3.879166
40.300000 -103.400000 3.884148
40.600000 -103.400000 3.884583
40.900000 -103.400000 3.886619
41.200000 -103.400000 3.888399
41.500000 -103.400000 3.886924
41.800000 -103.400000 3.883123
42.100000 -103.400000 3.877586
42.400000 -103.400000 3.867095
42.700000 -103.400000 3.852241
43.000000 -103.400000 3.849652
43.300000 -103.400000 3.856722
43.600000 -103.400000 3.874263
43.900000 -103.400000 3.893141
44.200000 -103.400000 3.919122
44.500000 -103.400000 3.942725
44.800000 -103.400000 3.961485
45.100000 -103.400000 3.969854
45.400000 -103.400000 3.975721
45.700000 -103.400000 3.971279
46.000000 -103.400000 3.967334
46.300000 -103.400000 3.958591
46.600000 -103.400000 3.950743
46.900000 -103.400000 3.943747
47.200000 -103.400000 3.942228
47.500000 -103.400000 3.944508
47.800000 -103.400000 3.944591
48.100000 -103.400000 3.944666
48.400000 -103.400000 3.940498
29.500000 -103.100000 3.799185
29.800000 -103.100000 3.805396
30.100000 -103.100000 3.819552
30.400000 -103.100000 3.837512
30.700000 -103.100000 3.853176
31.000000 -103.100000 3.867665
31.300000 -103.100000 3.872956
31.600000 -103.100000 3.874402
31.900000 -103.100000 3.876860
32.200000 -103.100000 3.879414
32.500000 -103.100000 3.889051
32.800000 -103.100000 3.893318
33.100000 -103.100000 3.898404
33.400000 -103.100000 3.897894
33.700000 -103.100000 3.894826
34.000000 -103.100000 3.890393
34.300000 -103.100000 3.879247
34.600000 -103.100000 3.862823
34.900000 -103.100000 3.847107
35.200000 -103.100000 3.841785
35.500000 -103.100000 3.847130
35.800000 -103.100000 3.858864
36.100000 -103.100000 3.865857
36.400000 -103.100000 3.866611
36.700000 -103.100000 3.866191
37.000000 -103.100000 3.867312
37.300000 -103.100000 3.869265
37.600000 -103.100000 3.870435
37.900000 -103.100000 3.869087
38.200000 -103.100000 3.862619
38.500000 -103.100000 3.857975
38.800000 -103.100000 3.858022
39.100000 -103.100000 3.864132
39.400000 -103.100000 3.877865
39.700000 -103.100000 3.890635
40.000000 -103.100000 3.898265
40.300000 -103.100000 3.898504
40.600000 -103.100000 3.898768
40.900000 -103.100000 3.901110
41.200000 -103.100000 3.901771
41.500000 -103.100000 3.899867
41.800000 -103.100000 3.894154
42.100000 -103.100000 3.887901
42.400000 -103.100000 3.876234
42.700000 -103.100000 3.863112
43.000000 -103.100000 3.856749
43.300000 -103.100000 3.867197
43.600000 -103.100000 3.883317
43.900000 -103.100000 3.901895
44.200000 -103.100000 3.926751
44.500000 -103.100000 3.950242
44.800000 -103.100000 3.965376
45.100000 -103.100000 3.975855
45.400000 -103.100000 3.975516
45.700000 -103.100000 3.971915
46.000000 -103.100000 3.964055
46.300000 -103.100000 3.958749
46.600000 -103.100000 3.951226
46.900000 -103.100000 3.947318
47.200000 -103.100000 3.945145
47.500000 -103.100000 3.944673
47.800000 -103.100000 3.944516
48.100000 -103.100000 3.945740
29.500000 -102.800000 3.800515
29.800000 -102.800000 3.808976
30.100000 -102.800000 3.826299
30.400000 -102.800000 3.847736
30.700000 -102.800000 3.871885
31.000000 -102.800000 3.888662
31.300000 -102.800000 3.896030
31.600000 -102.800000 3.894126
31.900000 -102.800000 3.889914
32.200000 -102.800000 3.889338
32.500000 -102.800000 3.892670
32.800000 -102.800000 3.900095
33.100000 -102.800000 3.904369
33.400000 -102.800000 3.904323
33.700000 -102.800000 3.901238
34.000000 -102.800000 3.897545
34.300000 -102.800000 3.889488
34.600000 -102.800000 3.873046
34.900000 -102.800000 3.857553
35.200000 -102.800000 3.851589
35.500000 -102.800000 3.858284
35.800000 -102.800000 3.873125
36.100000 -102.800000 3.884304
36.400000 -102.800000 3.889728
36.700000 -102.800000 3.892753
37.000000 -102.800000 3.894827
37.300000 -102.800000 3.895055
37.600000 -102.800000 3.890864
37.900000 -102.800000 3.884021
38.200000 -102.800000 3.876159
38.500000 -102.800000 3.871719
38.800000 -102.800000 3.870897
39.100000 -102.800000 3.879380
39.400000 -102.800000 3.893481
39.700000 -102.800000 3.909178
40.000000 -102.800000 3.916500
40.300000 -102.800000 3.916945
40.600000 -102.800000 3.913701
40.900000 -102.800000 3.915470
41.200000 -102.800000 3.915925
41.500000 -102.800000 3.911212
41.800000 -102.800000 3.904055
42.100000 -102.800000 3.897576
42.400000 -102.800000 3.890497
42.700000 -102.800000 3.876186
43.000000 -102.800000 3.874145
43.300000 -102.800000 3.881078
43.600000 -102.800000 3.895597
43.900000 -102.800000 3.912671
44.200000 -102.800000 3.936134
44.500000 -102.800000 3.955703
44.800000 -102.800000 3.970059
45.100000 -102.800000 3.977190
45.400000 -102.800000 3.977800
45.700000 -102.800000 3.970111
46.000000 -102.800000 3.960974
46.300000 -102.800000 3.953536
46.600000 -102.800000 3.947501
46.900000 -102.800000 3.942251
47.200000 -102.800000 3.941626
47.500000 -102.800000 3.942087
47.800000 -102.800000 3.943391
48.100000 -102.800000 3.945719
48.400000 -102.800000 3.950567
29.800000 -102.500000 3.815014
30.100000 -102.500000 3.834980
30.400000 -102.500000 3.857856
30.700000 -102.500000 3.884282
31.000000 -102.500000 3.906753
31.300000 -102.500000 3.916510
31.600000 -102.500000 3.915077
31.900000 -102.500000 3.907156
32.200000 -102.500000 3.899287
32.500000 -102.500000 3.897067
32.800000 -102.500000 3.901138
33.100000 -102.500000 3.909372
33.400000 -102.500000 3.911131
33.700000 -102.500000 3.910444
34.000000 -102.500000 3.907912
34.300000 -102.500000 3.899006
34.600000 -102.500000 3.883547
34.900000 -102.500000 3.869273
35.200000 -102.500000 3.864217
35.500000 -102.500000 3.870188
35.800000 -102.500000 3.882966
36.100000 -102.500000 3.896382
36.400000 -102.500000 3.905332
36.700000 -102.500000 3.910956
37.000000 -102.500000 3.914024
37.300000 -102.500000 3.913182
37.600000 -102.500000 3.905777
37.900000 -102.500000 3.896356
38.200000 -102.500000 3.889254
38.500000 -102.500000 3.884816
38.800000 -102.500000 3.884810
39.100000 -102.500000 3.891783
39.400000 -102.500000 3.908091
39.700000 -102.500000 3.924546
40.000000 -102.500000 3.935060
40.300000 -102.500000 3.934322
40.600000 -102.500000 3.930485
40.900000 -102.500000 3.928500
41.200000 -102.500000 3.927819
41.500000 -102.500000 3.918640
41.800000 -102.500000 3.909771
42.100000 -102.500000 3.904088
42.400000 -102.500000 3.898808
42.700000 -102.500000 3.889721
43.000000 -102.500000 3.884543
43.300000 -102.500000 3.893056
43.600000 -102.500000 3.907016
43.900000 -102.500000 3.924850
44.200000 -102.500000 3.944777
44.500000 -102.500000 3.962238
44.800000 -102.500000 3.972681
45.100000 -102.500000 3.978428
45.400000 -102.500000 3.977613
45.700000 -102.500000 3.969854
46.000000 -102.500000 3.959245
46.300000 -102.500000 3.949080
46.600000 -102.500000 3.940840
46.900000 -102.500000 3.937004
47.200000 -102.500000 3.937894
47.500000 -102.500000 3.939385
47.800000 -102.500000 3.942081
48.100000 -102.500000 3.947367
48.400000 -102.500000 3.953525
48.700000 -102.500000 3.958318
30.100000 -102.200000 3.851410
30.400000 -102.200000 3.871067
30.700000 -102.200000 3.896941
31.000000 -102.200000 3.920789
31.300000 -102.200000 3.933725
31.600000 -102.200000 3.934186
31.900000 -102.200000 3.926471
32.200000 -102.200000 3.913241
32.500000 -102.200000 3.906181
32.800000 -102.200000 3.907283
33.100000 -102.200000 3.915448
33.400000 -102.200000 3.921071
33.700000 -102.200000 3.920738
34.000000 -102.200000 3.917297
34.300000 -102.200000 3.906734
34.600000 -102.200000 3.892267
34.900000 -102.200000 3.879941
35.200000 -102.200000 3.875273
35.500000 -102.200000 3.878515
35.800000 -102.200000 3.890980
36.100000 -102.200000 3.905114
36.400000 -102.200000 3.916826
36.700000 -102.200000 3.924370
37.000000 -102.200000 3.925928
37.300000 -102.200000 3.924161
37.600000 -102.200000 3.917337
37.900000 -102.200000 3.910312
38.200000 -102.200000 3.904938
38.500000 -102.200000 3.903342
38.800000 -102.200000 3.903719
39.100000 -102.200000 3.910305
39.400000 -102.200000 3.922825
39.700000 -102.200000 3.937577
40.000000 -102.200000 3.945750
40.300000 -102.200000 3.946216
40.600000 -102.200000 3.940740
40.900000 -102.200000 3.939301
41.200000 -102.200000 3.935765
41.500000 -102.200000 3.924409
41.800000 -102.200000 3.913037
42.100000 -102.200000 3.908986
42.400000 -102.200000 3.905513
42.700000 -102.200000 3.898215
43.000000 -102.200000 3.894777
43.300000 -102.200000 3.902192
43.600000 -102.200000 3.918381
43.900000 -102.200000 3.935770
44.200000 -102.200000 3.954338
44.500000 -102.200000 3.966361
44.800000 -102.200000 3.973924
45.100000 -102.200000 3.977678
45.400000 -102.200000 3.975739
45.700000 -102.200000 3.969842
46.000000 -102.200000 3.958563
46.300000 -102.200000 3.946972
46.600000 -102.200000 3.937222
46.900000 -102.200000 3.934100
47.200000 -102.200000 3.935825
47.500000 -102.200000 3.940594
47.800000 -102.200000 3.940300
48.100000 -102.200000 3.947060
48.400000 -102.200000 3.955871
48.700000 -102.200000 3.962236
30.100000 -101.900000 3.863182
30.400000 -101.900000 3.878180
30.700000 -101.900000 3.903262
31.000000 -101.900000 3.927103
31.300000 -101.900000 3.943988
31.600000 -101.900000 3.949972
31.900000 -101.900000 3.943404
32.200000 -101.900000 3.931226
32.500000 -101.900000 3.920759
32.800000 -101.900000 3.919299
33.100000 -101.900000 3.926253
33.400000 -101.900000 3.933116
33.700000 -101.900000 3.931881
34.000000 -101.900000 3.925893
34.300000 -101.900000 3.912478
34.600000 -101.900000 3.897626
34.900000 -101.900000 3.884227
35.200000 -101.900000 3.877236
35.500000 -101.900000 3.880354
35.800000 -101.900000 3.893240
36.100000 -101.900000 3.909401
36.400000 -101.900000 3.925560
36.700000 -101.900000 3.933148
37.000000 -101.900000 3.934015
37.300000 -101.900000 3.931633
37.600000 -101.900000 3.927363
37.900000 -101.900000 3.923736
38.200000 -101.900000 3.922473
38.500000 -101.900000 3.923519
38.800000 -101.900000 3.925404
39.100000 -101.900000 3.930997
39.400000 -101.900000 3.936865
39.700000 -101.900000 3.944143
40.000000 -101.900000 3.948823
40.300000 -101.900000 3.948164
40.600000 -101.900000 3.946176
40.900000 -101.900000 3.944659
41.200000 -101.900000 3.942016
41.500000 -101.900000 3.929608
41.800000 -101.900000 3.919893
42.100000 -101.900000 3.914006
42.400000 -101.900000 3.911228
42.700000 -101.900000 3.906321
43.000000 -101.900000 3.903108
43.300000 -101.900000 3.910476
43.600000 -101.900000 3.927500
43.900000 -101.900000 3.944645
44.200000 -101.900000 3.959688
44.500000 -101.900000 3.968772
44.800000 -101.900000 3.975454
45.100000 -101.900000 3.975556
45.400000 -101.900000 3.974652
45.700000 -101.900000 3.969688
46.000000 -101.900000 3.960717
46.300000 -101.900000 3.949826
46.600000 -101.900000 3.939906
46.900000 -101.900000 3.935600
47.200000 -101.900000 3.939722
47.500000 -101.900000 3.941208
47.800000 -101.900000 3.941903
48.100000 -101.900000 3.945091
48.400000 -101.900000 3.957029
48.700000 -101.900000 3.965817
30.100000 -101.600000 3.871195
30.400000 -101.600000 3.882713
30.700000 -101.600000 3.902773
31.000000 -101.600000 3.926666
31.300000 -101.600000 3.946897
31.600000 -101.600000 3.957567
31.900000 -101.600000 3.957239
32.200000 -101.600000 3.947787
32.500000 -101.600000 3.939272
32.800000 -101.600000 3.935593
33.100000 -101.600000 3.940293
33.400000 -101.600000 3.943747
33.700000 -101.600000 3.942270
34.000000 -101.600000 3.933042
34.300000 -101.600000 3.917168
34.600000 -101.600000 3.897350
34.900000 -101.600000 3.881265
35.200000 -101.600000 3.872305
35.500000 -101.600000 3.875924
35.800000 -101.600000 3.890657
36.100000 -101.600000 3.912102
36.400000 -101.600000 3.930831
36.700000 -101.600000 3.941869
37.000000 -101.600000 3.942675
37.300000 -101.600000 3.940465
37.600000 -101.600000 3.936807
37.900000 -101.600000 3.936078
38.200000 -101.600000 3.938335
38.500000 -101.600000 3.941537
38.800000 -101.600000 3.945435
39.100000 -101.600000 3.947623
39.400000 -101.600000 3.948068
39.700000 -101.600000 3.949304
40.000000 -101.600000 3.948859
40.300000 -101.600000 3.949853
40.600000 -101.600000 3.948573
40.900000 -101.600000 3.947828
41.200000 -101.600000 3.945796
41.500000 -101.600000 3.935372
41.800000 -101.600000 3.926487
42.100000 -101.600000 3.920370
42.400000 -101.600000 3.913927
42.700000 -101.600000 3.909717
43.000000 -101.600000 3.908544
43.300000 -101.600000 3.916012
43.600000 -101.600000 3.931442
43.900000 -101.600000 3.949825
44.200000 -101.600000 3.963744
44.500000 -101.600000 3.973329
44.800000 -101.600000 3.978335
45.100000 -101.600000 3.979474
45.400000 -101.600000 3.974947
45.700000 -101.600000 3.972011
46.000000 -101.600000 3.964993
46.300000 -101.600000 3.956425
46.600000 -101.600000 3.948458
46.900000 -101.600000 3.944208
47.200000 -101.600000 3.944107
47.500000 -101.600000 3.947003
47.800000 -101.600000 3.943958
48.100000 -101.600000 3.947341
48.400000 -101.600000 3.956247
48.700000 -101.600000 3.967325
29.800000 -101.300000 3.883227
30.100000 -101.300000 3.879695
30.400000 -101.300000 3.886723
30.700000 -101.300000 3.902410
31.000000 -101.300000 3.923744
31.300000 -101.300000 3.945550
31.600000 -101.300000 3.960267
31.900000 -101.300000 3.963679
32.200000 -101.300000 3.960184
32.500000 -101.300000 3.954308
32.800000 -101.300000 3.949449
33.100000 -101.300000 3.949918
33.400000 -101.300000 3.951355
33.700000 -101.300000 3.947939
34.000000 -101.300000 3.941151
34.300000 -101.300000 3.922919
34.600000 -101.300000 3.900649
34.900000 -101.300000 3.879168
35.200000 -101.300000 3.867179
35.500000 -101.300000 3.869274
35.800000 -101.300000 3.887094
36.100000 -101.300000 3.908857
36.400000 -101.300000 3.932899
36.700000 -101.300000 3.948586
37.000000 -101.300000 3.952044
37.300000 -101.300000 3.948854
37.600000 -101.300000 3.945378
37.900000 -101.300000 3.945842
38.200000 -101.300000 3.950465
38.500000 -101.300000 3.956304
38.800000 -101.300000 3.959142
39.100000 -101.300000 3.960474
39.400000 -101.300000 3.957222
39.700000 -101.300000 3.953789
40.000000 -101.300000 3.951121
40.300000 -101.300000 3.949457
40.600000 -101.300000 3.949947
40.900000 -101.300000 3.951441
41.200000 -101.300000 3.948605
41.500000 -101.300000 3.942475
41.800000 -101.300000 3.935472
42.100000 -101.300000 3.928436
42.400000 -101.300000 3.921428
42.700000 -101.300000 3.913675
43.000000 -101.300000 3.913233
43.300000 -101.300000 3.918894
43.600000 -101.300000 3.935590
43.900000 -101.300000 3.951924
44.200000 -101.300000 3.967563
44.500000 -101.300000 3.979622
44.800000 -101.300000 3.987509
45.100000 -101.300000 3.984978
45.400000 -101.300000 3.982161
45.700000 -101.300000 3.977267
46.000000 -101.300000 3.972284
46.300000 -101.300000 3.965938
46.600000 -101.300000 3.960035
46.900000 -101.300000 3.952923
47.200000 -101.300000 3.952105
47.500000 -101.300000 3.952479
48.100000 -101.300000 3.949184
48.400000 -101.300000 3.955597
48.700000 -101.300000 3.966880
29.500000 -101.000000 3.886225
29.800000 -101.000000 3.888911
30.100000 -101.000000 3.892416
30.400000 -101.000000 3.895657
30.700000 -101.000000 3.908031
31.000000 -101.000000 3.925515
31.300000 -101.000000 3.945540
31.600000 -101.000000 3.961775
31.900000 -101.000000 3.970117
32.200000 -101.000000 3.968653
32.500000 -101.000000 3.964089
32.800000 -101.000000 3.958424
33.100000 -101.000000 3.956683
33.400000 -101.000000 3.954382
33.700000 -101.000000 3.952948
34.000000 -101.000000 3.946618
34.300000 -101.000000 3.929809
34.600000 -101.000000 3.906695
34.900000 -101.000000 3.884416
35.200000 -101.000000 3.868382
35.500000 -101.000000 3.869540
35.800000 -101.000000 3.884547
36.100000 -101.000000 3.908920
36.400000 -101.000000 3.934532
36.700000 -101.000000 3.952857
37.000000 -101.000000 3.959592
37.300000 -101.000000 3.957999
37.600000 -101.000000 3.954068
37.900000 -101.000000 3.955019
38.200000 -101.000000 3.960592
38.500000 -101.000000 3.965873
38.800000 -101.000000 3.968264
39.100000 -101.000000 3.968186
39.400000 -101.000000 3.964449
39.700000 -101.000000 3.959450
40.000000 -101.000000 3.952518
40.300000 -101.000000 3.949266
40.600000 -101.000000 3.950499
40.900000 -101.000000 3.952345
41.200000 -101.000000 3.952019
41.500000 -101.000000 3.946967
41.800000 -101.000000 3.943269
42.100000 -101.000000 3.938935
42.400000 -101.000000 3.929499
42.700000 -101.000000 3.923232
43.000000 -101.000000 3.919780
43.300000 -101.000000 3.925803
43.600000 -101.000000 3.937238
43.900000 -101.000000 3.953891
44.200000 -101.000000 3.971621
44.500000 -101.000000 3.986671
44.800000 -101.000000 3.997185
45.100000 -101.000000 3.998356
45.400000 -101.000000 3.993818
45.700000 -101.000000 3.990384
46.000000 -101.000000 3.984450
46.300000 -101.000000 3.980581
46.600000 -101.000000 3.975028
46.900000 -101.000000 3.969768
47.200000 -101.000000 3.964399
47.500000 -101.000000 3.963336
47.800000 -101.000000 3.962680
48.100000 -101.000000 3.956279
48.400000 -101.000000 3.961303
48.700000 -101.000000 3.968597
29.200000 -100.700000 3.881423
29.500000 -100.700000 3.884668
29.800000 -100.700000 3.898181
30.100000 -100.700000 3.907643
30.400000 -100.700000 3.913389
30.700000 -100.700000 3.921968
31.000000 -100.700000 3.933954
31.300000 -100.700000 3.949208
31.600000 -100.700000 3.965496
31.900000 -100.700000 3.973333
32.200000 -100.700000 3.973962
32.500000 -100.700000 3.967527
32.800000 -100.700000 3.959303
33.100000 -100.700000 3.955186
33.400000 -100.700000 3.954383
33.700000 -100.700000 3.952516
34.000000 -100.700000 3.949188
34.300000 -100.700000 3.935808
34.600000 -100.700000 3.915133
34.900000 -100.700000 3.893475
35.200000 -100.700000 3.878128
35.500000 -100.700000 3.874593
35.800000 -100.700000 3.891370
36.100000 -100.700000 3.914094
36.400000 -100.700000 3.937349
36.700000 -100.700000 3.956081
37.000000 -100.700000 3.963888
37.300000 -100.700000 3.963840
37.600000 -100.700000 3.963455
37.900000 -100.700000 3.966213
38.200000 -100.700000 3.970972
38.500000 -100.700000 3.974842
38.800000 -100.700000 3.975018
39.100000 -100.700000 3.973861
39.400000 -100.700000 3.968415
39.700000 -100.700000 3.961992
40.000000 -100.700000 3.954372
40.300000 -100.700000 3.949424
40.600000 -100.700000 3.950102
40.900000 -100.700000 3.954379
41.200000 -100.700000 3.952890
41.500000 -100.700000 3.951429
41.800000 -100.700000 3.948238
42.100000 -100.700000 3.945598
42.400000 -100.700000 3.936617
42.700000 -100.700000 3.928949
43.000000 -100.700000 3.929191
43.300000 -100.700000 3.931155
43.600000 -100.700000 3.943305
43.900000 -100.700000 3.956480
44.200000 -100.700000 3.974154
44.500000 -100.700000 3.994637
44.800000 -100.700000 4.007179
45.100000 -100.700000 4.010915
45.400000 -100.700000 4.009869
45.700000 -100.700000 4.005277
46.000000 -100.700000 4.001869
46.300000 -100.700000 3.998509
46.600000 -100.700000 3.996634
46.900000 -100.700000 3.991093
47.200000 -100.700000 3.984951
47.500000 -100.700000 3.980179
47.800000 -100.700000 3.974981
48.100000 -100.700000 3.970715
48.400000 -100.700000 3.970890
48.700000 -100.700000 3.978717
28.900000 -100.400000 3.898277
29.200000 -100.400000 3.886406
29.500000 -100.400000 3.889267
29.800000 -100.400000 3.905988
30.100000 -100.400000 3.923650
30.400000 -100.400000 3.935895
30.700000 -100.400000 3.942965
31.000000 -100.400000 3.950035
31.300000 -100.400000 3.960953
31.600000 -100.400000 3.971190
31.900000 -100.400000 3.976311
32.200000 -100.400000 3.971889
32.500000 -100.400000 3.963941
32.800000 -100.400000 3.953626
33.100000 -100.400000 3.949150
33.400000 -100.400000 3.948460
33.700000 -100.400000 3.951459
34.000000 -100.400000 3.951261
34.300000 -100.400000 3.940869
34.600000 -100.400000 3.922974
34.900000 -100.400000 3.900993
35.200000 -100.400000 3.885363
35.500000 -100.400000 3.883737
35.800000 -100.400000 3.898385
36.100000 -100.400000 3.921711
36.400000 -100.400000 3.942962
36.700000 -100.400000 3.957540
37.000000 -100.400000 3.966082
37.300000 -100.400000 3.968723
37.600000 -100.400000 3.971501
37.900000 -100.400000 3.976182
38.200000 -100.400000 3.980422
38.500000 -100.400000 3.983261
38.800000 -100.400000 3.981891
39.100000 -100.400000 3.978190
39.400000 -100.400000 3.971416
39.700000 -100.400000 3.963904
40.000000 -100.400000 3.955431
40.300000 -100.400000 3.949785
40.600000 -100.400000 3.948360
40.900000 -100.400000 3.950912
41.200000 -100.400000 3.951038
41.500000 -100.400000 3.952816
41.800000 -100.400000 3.954088
42.100000 -100.400000 3.949926
42.400000 -100.400000 3.944296
42.700000 -100.400000 3.938422
43.000000 -100.400000 3.938915
43.300000 -100.400000 3.942228
43.600000 -100.400000 3.953040
43.900000 -100.400000 3.964278
44.200000 -100.400000 3.983093
44.500000 -100.400000 4.001277
44.800000 -100.400000 4.016250
45.100000 -100.400000 4.022846
45.400000 -100.400000 4.022568
45.700000 -100.400000 4.021593
46.000000 -100.400000 4.019371
46.300000 -100.400000 4.020060
46.600000 -100.400000 4.020152
46.900000 -100.400000 4.016258
47.200000 -100.400000 4.010462
47.500000 -100.400000 4.002146
47.800000 -100.400000 3.994465
48.100000 -100.400000 3.986670
48.400000 -100.400000 3.987828
48.700000 -100.400000 3.989117
28.000000 -100.100000 3.950915
28.300000 -100.100000 3.945317
28.600000 -100.100000 3.930103
28.900000 -100.100000 3.909178
29.200000 -100.100000 3.895569
29.500000 -100.100000 3.896076
29.800000 -100.100000 3.914177
30.100000 -100.100000 3.938182
30.400000 -100.100000 3.954160
30.700000 -100.100000 3.963428
31.000000 -100.100000 3.968356
31.300000 -100.100000 3.974195
31.600000 -100.100000 3.978259
31.900000 -100.100000 3.974332
32.200000 -100.100000 3.965644
32.500000 -100.100000 3.956275
32.800000 -100.100000 3.945187
33.100000 -100.100000 3.942042
33.400000 -100.100000 3.944797
33.700000 -100.100000 3.950093
34.000000 -100.100000 3.953762
34.300000 -100.100000 3.946170
34.600000 -100.100000 3.925153
34.900000 -100.100000 3.903267
35.200000 -100.100000 3.890823
35.500000 -100.100000 3.891586
35.800000 -100.100000 3.908814
36.100000 -100.100000 3.932766
36.400000 -100.100000 3.950459
36.700000 -100.100000 3.963254
37.000000 -100.100000 3.970133
37.300000 -100.100000 3.973999
37.600000 -100.100000 3.978459
37.900000 -100.100000 3.984152
38.200000 -100.100000 3.989424
38.500000 -100.100000 3.993051
38.800000 -100.100000 3.992013
39.100000 -100.100000 3.985182
39.400000 -100.100000 3.975725
39.700000 -100.100000 3.966339
40.000000 -100.100000 3.956518
40.300000 -100.100000 3.948909
40.600000 -100.100000 3.945522
40.900000 -100.100000 3.947510
41.200000 -100.100000 3.949494
41.500000 -100.100000 3.953630
41.800000 -100.100000 3.954092
42.100000 -100.100000 3.953257
42.400000 -100.100000 3.947050
42.700000 -100.100000 3.946452
43.000000 -100.100000 3.946917
43.300000 -100.100000 3.952830
43.600000 -100.100000 3.964056
43.900000 -100.100000 3.977717
44.200000 -100.100000 3.992260
44.500000 -100.100000 4.010393
44.800000 -100.100000 4.024061
45.100000 -100.100000 4.032171
45.400000 -100.100000 4.033943
45.700000 -100.100000 4.033212
46.000000 -100.100000 4.036512
46.300000 -100.100000 4.038489
46.600000 -100.100000 4.040376
46.900000 -100.100000 4.041697
47.200000 -100.100000 4.034669
47.500000 -100.100000 4.026983
47.800000 -100.100000 4.016165
48.100000 -100.100000 4.005865
48.400000 -100.100000 4.002947
48.700000 -100.100000 4.005375
28.000000 -99.800000 3.946667
28.300000 -99.800000 3.945720
28.600000 -99.800000 3.937765
28.900000 -99.800000 3.923738
29.200000 -99.800000 3.910920
29.500000 -99.800000 3.910706
29.800000 -99.800000 3.924128
30.100000 -99.800000 3.947214
30.400000 -99.800000 3.970774
30.700000 -99.800000 3.981015
31.000000 -99.800000 3.984973
31.300000 -99.800000 3.986363
31.600000 -99.800000 3.983248
31.900000 -99.800000 3.973149
32.200000 -99.800000 3.964328
32.500000 -99.800000 3.952640
32.800000 -99.800000 3.943940
33.100000 -99.800000 3.941261
33.400000 -99.800000 3.945165
33.700000 -99.800000 3.952600
34.000000 -99.800000 3.955484
34.300000 -99.800000 3.946490
34.600000 -99.800000 3.924141
34.900000 -99.800000 3.902662
35.200000 -99.800000 3.893637
35.500000 -99.800000 3.900125
35.800000 -99.800000 3.921608
36.100000 -99.800000 3.945640
36.400000 -99.800000 3.962845
36.700000 -99.800000 3.972469
37.000000 -99.800000 3.976734
37.300000 -99.800000 3.980185
37.600000 -99.800000 3.983760
37.900000 -99.800000 3.990138
38.200000 -99.800000 3.997367
38.500000 -99.800000 4.003919
38.800000 -99.800000 4.004381
39.100000 -99.800000 3.997228
39.400000 -99.800000 3.985183
39.700000 -99.800000 3.973202
40.000000 -99.800000 3.961782
40.300000 -99.800000 3.951009
40.600000 -99.800000 3.946710
40.900000 -99.800000 3.948956
41.200000 -99.800000 3.953723
41.500000 -99.800000 3.957358
41.800000 -99.800000 3.956676
42.100000 -99.800000 3.953455
42.400000 -99.800000 3.949417
42.700000 -99.800000 3.948391
43.000000 -99.800000 3.954178
43.300000 -99.800000 3.957719
43.600000 -99.800000 3.972315
43.900000 -99.800000 3.985761
44.200000 -99.800000 4.003664
44.500000 -99.800000 4.018022
44.800000 -99.800000 4.029151
45.100000 -99.800000 4.039438
45.400000 -99.800000 4.042115
45.700000 -99.800000 4.046639
46.000000 -99.800000 4.051447
46.300000 -99.800000 4.056159
46.600000 -99.800000 4.059410
46.900000 -99.800000 4.060085
47.200000 -99.800000 4.057727
47.500000 -99.800000 4.049106
47.800000 -99.800000 4.035880
48.100000 -99.800000 4.023194
48.400000 -99.800000 4.017868
48.700000 -99.800000 4.015899
27.400000 -99.500000 3.877634
27.700000 -99.500000 3.897103
28.000000 -99.500000 3.927100
28.300000 -99.500000 3.940266
28.600000 -99.500000 3.942701
28.900000 -99.500000 3.935299
29.200000 -99.500000 3.930388
29.500000 -99.500000 3.927305
29.800000 -99.500000 3.935392
30.100000 -99.500000 3.958244
30.400000 -99.500000 3.982320
30.700000 -99.500000 3.997687
31.000000 -99.500000 4.002354
31.300000 -99.500000 3.999531
31.600000 -99.500000 3.990930
31.900000 -99.500000 3.981209
32.200000 -99.500000 3.967668
32.500000 -99.500000 3.958553
32.800000 -99.500000 3.948237
33.100000 -99.500000 3.946732
33.400000 -99.500000 3.951034
33.700000 -99.500000 3.955771
34.000000 -99.500000 3.958219
34.300000 -99.500000 3.945562
34.600000 -99.500000 3.925477
34.900000 -99.500000 3.904585
35.200000 -99.500000 3.898169
35.500000 -99.500000 3.907236
35.800000 -99.500000 3.930424
36.100000 -99.500000 3.956463
36.400000 -99.500000 3.973194
36.700000 -99.500000 3.981093
37.000000 -99.500000 3.984315
37.300000 -99.500000 3.985805
37.600000 -99.500000 3.989829
37.900000 -99.500000 3.994364
38.200000 -99.500000 4.001991
38.500000 -99.500000 4.012625
38.800000 -99.500000 4.015904
39.100000 -99.500000 4.009832
39.400000 -99.500000 3.997434
39.700000 -99.500000 3.986970
40.000000 -99.500000 3.971154
40.300000 -99.500000 3.958317
40.600000 -99.500000 3.951407
40.900000 -99.500000 3.954736
41.200000 -99.500000 3.958086
41.500000 -99.500000 3.961298
41.800000 -99.500000 3.960348
42.100000 -99.500000 3.957165
42.400000 -99.500000 3.953753
42.700000 -99.500000 3.955835
43.000000 -99.500000 3.957868
43.300000 -99.500000 3.961217
43.600000 -99.500000 3.978611
43.900000 -99.500000 3.990962
44.200000 -99.500000 4.012547
44.500000 -99.500000 4.024471
44.800000 -99.500000 4.035399
45.100000 -99.500000 4.043863
45.400000 -99.500000 4.050771
45.700000 -99.500000 4.059265
46.000000 -99.500000 4.069220
46.300000 -99.500000 4.073159
46.600000 -99.500000 4.075653
46.900000 -99.500000 4.077758
47.200000 -99.500000 4.075343
47.500000 -99.500000 4.068715
47.800000 -99.500000 4.055363
48.100000 -99.500000 4.038702
48.400000 -99.500000 4.026863
48.700000 -99.500000 4.026321
27.400000 -99.200000 3.857447
27.700000 -99.200000 3.878388
28.000000 -99.200000 3.906177
28.300000 -99.200000 3.925995
28.600000 -99.200000 3.936302
28.900000 -99.200000 3.939806
29.200000 -99.200000 3.939882
29.500000 -99.200000 3.941312
29.800000 -99.200000 3.949635
30.100000 -99.200000 3.968579
30.400000 -99.200000 3.992660
30.700000 -99.200000 4.010137
31.000000 -99.200000 4.017249
31.300000 -99.200000 4.012061
31.600000 -99.200000 4.003625
31.900000 -99.200000 3.989268
32.200000 -99.200000 3.976895
32.500000 -99.200000 3.963257
32.800000 -99.200000 3.955595
33.100000 -99.200000 3.956134
33.400000 -99.200000 3.957969
33.700000 -99.200000 3.959793
34.000000 -99.200000 3.955957
34.300000 -99.200000 3.944373
34.600000 -99.200000 3.925604
34.900000 -99.200000 3.910663
35.200000 -99.200000 3.905532
35.500000 -99.200000 3.917033
35.800000 -99.200000 3.939934
36.100000 -99.200000 3.963558
36.400000 -99.200000 3.979399
36.700000 -99.200000 3.988267
37.000000 -99.200000 3.988975
37.300000 -99.200000 3.991603
37.600000 -99.200000 3.992565
37.900000 -99.200000 3.996356
38.200000 -99.200000 4.005302
38.500000 -99.200000 4.016469
38.800000 -99.200000 4.022545
39.100000 -99.200000 4.019014
39.400000 -99.200000 4.008939
39.700000 -99.200000 3.997694
40.000000 -99.200000 3.985111
40.300000 -99.200000 3.970990
40.600000 -99.200000 3.964005
40.900000 -99.200000 3.964000
41.200000 -99.200000 3.966934
41.500000 -99.200000 3.966451
41.800000 -99.200000 3.965855
42.100000 -99.200000 3.964925
42.400000 -99.200000 3.962531
42.700000 -99.200000 3.961437
43.000000 -99.200000 3.963074
43.300000 -99.200000 3.968975
43.600000 -99.200000 3.982427
43.900000 -99.200000 4.001304
44.200000 -99.200000 4.021023
44.500000 -99.200000 4.034723
44.800000 -99.200000 4.038331
45.100000 -99.200000 4.047042
45.400000 -99.200000 4.057049
45.700000 -99.200000 4.068594
46.000000 -99.200000 4.079605
46.300000 -99.200000 4.085172
46.600000 -99.200000 4.087888
46.900000 -99.200000 4.089136
47.200000 -99.200000 4.088372
47.500000 -99.200000 4.084675
