34.600000 -95.300000 3.629015
34.900000 -95.300000 3.648768
35.200000 -95.300000 3.684468
35.500000 -95.300000 3.724124
35.800000 -95.300000 3.753580
36.100000 -95.300000 3.759771
36.400000 -95.300000 3.756056
36.700000 -95.300000 3.759184
37.000000 -95.300000 3.752795
37.300000 -95.300000 3.746210
37.600000 -95.300000 3.744748
37.900000 -95.300000 3.747377
38.200000 -95.300000 3.746350
38.500000 -95.300000 3.738390
38.800000 -95.300000 3.734942
39.100000 -95.300000 3.732754
39.400000 -95.300000 3.734894
39.700000 -95.300000 3.730196
40.000000 -95.300000 3.710441
40.300000 -95.300000 3.689802
40.600000 -95.300000 3.662788
40.900000 -95.300000 3.639335
41.200000 -95.300000 3.635781
41.500000 -95.300000 3.635408
41.800000 -95.300000 3.663113
42.100000 -95.300000 3.676481
42.400000 -95.300000 3.695942
42.700000 -95.300000 3.723029
43.000000 -95.300000 3.736965
43.300000 -95.300000 3.745748
43.600000 -95.300000 3.755773
43.900000 -95.300000 3.762059
44.200000 -95.300000 3.762991
44.500000 -95.300000 3.757232
44.800000 -95.300000 3.769928
45.100000 -95.300000 3.754149
45.400000 -95.300000 3.751053
45.700000 -95.300000 3.758141
46.000000 -95.300000 3.765408
46.300000 -95.300000 3.778057
46.600000 -95.300000 3.793677
46.900000 -95.300000 3.811089
47.200000 -95.300000 3.821874
47.500000 -95.300000 3.825635
47.800000 -95.300000 3.824237
48.100000 -95.300000 3.820793
48.400000 -95.300000 3.818591
48.700000 -95.300000 3.805219
30.100000 -95.000000 3.644734
30.400000 -95.000000 3.684862
30.700000 -95.000000 3.712556
31.000000 -95.000000 3.719171
31.300000 -95.000000 3.716207
31.600000 -95.000000 3.702452
31.900000 -95.000000 3.695609
32.200000 -95.000000 3.684274
32.500000 -95.000000 3.678349
32.800000 -95.000000 3.677053
33.100000 -95.000000 3.694059
33.400000 -95.000000 3.699769
33.700000 -95.000000 3.693802
34.000000 -95.000000 3.662134
34.300000 -95.000000 3.637235
34.600000 -95.000000 3.637123
34.900000 -95.000000 3.652000
35.200000 -95.000000 3.694229
35.500000 -95.000000 3.731118
35.800000 -95.000000 3.760257
36.100000 -95.000000 3.767948
36.400000 -95.000000 3.761812
36.700000 -95.000000 3.754374
37.000000 -95.000000 3.748989
37.300000 -95.000000 3.744900
37.600000 -95.000000 3.746888
37.900000 -95.000000 3.744555
38.200000 -95.000000 3.738774
38.500000 -95.000000 3.733546
38.800000 -95.000000 3.727078
39.100000 -95.000000 3.723196
39.400000 -95.000000 3.724167
39.700000 -95.000000 3.727198
40.000000 -95.000000 3.712397
40.300000 -95.000000 3.693940
40.600000 -95.000000 3.672217
40.900000 -95.000000 3.654686
41.200000 -95.000000 3.643119
41.500000 -95.000000 3.633425
41.800000 -95.000000 3.651806
42.100000 -95.000000 3.661655
42.400000 -95.000000 3.680190
42.700000 -95.000000 3.703059
43.000000 -95.000000 3.724858
43.300000 -95.000000 3.746344
43.600000 -95.000000 3.754648
43.900000 -95.000000 3.765004
44.200000 -95.000000 3.759259
44.500000 -95.000000 3.759068
44.800000 -95.000000 3.751048
45.100000 -95.000000 3.745914
45.400000 -95.000000 3.741146
45.700000 -95.000000 3.749688
46.000000 -95.000000 3.749991
46.300000 -95.000000 3.764427
46.600000 -95.000000 3.782586
46.900000 -95.000000 3.800107
47.200000 -95.000000 3.814883
47.500000 -95.000000 3.822323
47.800000 -95.000000 3.828574
48.100000 -95.000000 3.829587
48.400000 -95.000000 3.827904
30.100000 -94.700000 3.647424
30.400000 -94.700000 3.679382
30.700000 -94.700000 3.711215
31.000000 -94.700000 3.721753
31.300000 -94.700000 3.724811
31.600000 -94.700000 3.720581
31.900000 -94.700000 3.713698
32.200000 -94.700000 3.698292
32.500000 -94.700000 3.690836
32.800000 -94.700000 3.687334
33.100000 -94.700000 3.701887
33.400000 -94.700000 3.706815
33.700000 -94.700000 3.697945
34.000000 -94.700000 3.669411
34.300000 -94.700000 3.654778
34.600000 -94.700000 3.647353
34.900000 -94.700000 3.664403
35.200000 -94.700000 3.702486
35.500000 -94.700000 3.735761
35.800000 -94.700000 3.758588
36.100000 -94.700000 3.765992
36.400000 -94.700000 3.761543
36.700000 -94.700000 3.750732
37.000000 -94.700000 3.750518
37.300000 -94.700000 3.740989
37.600000 -94.700000 3.747504
37.900000 -94.700000 3.745178
38.200000 -94.700000 3.739905
38.500000 -94.700000 3.729860
38.800000 -94.700000 3.719546
39.100000 -94.700000 3.711218
39.400000 -94.700000 3.715290
39.700000 -94.700000 3.722907
40.000000 -94.700000 3.714807
40.300000 -94.700000 3.698101
40.600000 -94.700000 3.679792
40.900000 -94.700000 3.663514
41.200000 -94.700000 3.651073
41.500000 -94.700000 3.639980
41.800000 -94.700000 3.636981
42.100000 -94.700000 3.649933
42.400000 -94.700000 3.665987
42.700000 -94.700000 3.689809
43.000000 -94.700000 3.717744
43.300000 -94.700000 3.738739
43.600000 -94.700000 3.746577
43.900000 -94.700000 3.749006
44.200000 -94.700000 3.745436
44.500000 -94.700000 3.748651
44.800000 -94.700000 3.738774
45.100000 -94.700000 3.733665
45.400000 -94.700000 3.732195
45.700000 -94.700000 3.736141
46.000000 -94.700000 3.745707
46.300000 -94.700000 3.757193
46.600000 -94.700000 3.767764
46.900000 -94.700000 3.790123
47.200000 -94.700000 3.807893
47.500000 -94.700000 3.819380
47.800000 -94.700000 3.831721
48.100000 -94.700000 3.838533
48.400000 -94.700000 3.833891
30.100000 -94.400000 3.650488
30.400000 -94.400000 3.681353
30.700000 -94.400000 3.703953
31.000000 -94.400000 3.717600
31.300000 -94.400000 3.725131
31.600000 -94.400000 3.726771
31.900000 -94.400000 3.721030
32.200000 -94.400000 3.709592
32.500000 -94.400000 3.700062
32.800000 -94.400000 3.695083
33.100000 -94.400000 3.706742
33.400000 -94.400000 3.709249
33.700000 -94.400000 3.705712
34.000000 -94.400000 3.684829
34.300000 -94.400000 3.664983
34.600000 -94.400000 3.668373
34.900000 -94.400000 3.680452
35.200000 -94.400000 3.698304
35.500000 -94.400000 3.722154
35.800000 -94.400000 3.748507
36.100000 -94.400000 3.757220
36.400000 -94.400000 3.753309
36.700000 -94.400000 3.749616
37.000000 -94.400000 3.746914
37.300000 -94.400000 3.744066
37.600000 -94.400000 3.746007
37.900000 -94.400000 3.747427
38.200000 -94.400000 3.743398
38.500000 -94.400000 3.733598
38.800000 -94.400000 3.721801
39.100000 -94.400000 3.713829
39.400000 -94.400000 3.715981
39.700000 -94.400000 3.723602
40.000000 -94.400000 3.717768
40.300000 -94.400000 3.708703
40.600000 -94.400000 3.689018
40.900000 -94.400000 3.677385
41.200000 -94.400000 3.661895
41.500000 -94.400000 3.647906
41.800000 -94.400000 3.647895
42.100000 -94.400000 3.649102
42.400000 -94.400000 3.659696
42.700000 -94.400000 3.681149
43.000000 -94.400000 3.702010
43.300000 -94.400000 3.725341
43.600000 -94.400000 3.727562
43.900000 -94.400000 3.733374
44.200000 -94.400000 3.729496
44.500000 -94.400000 3.724233
44.800000 -94.400000 3.722227
45.100000 -94.400000 3.716297
45.400000 -94.400000 3.720224
45.700000 -94.400000 3.723757
46.000000 -94.400000 3.733155
46.300000 -94.400000 3.742480
46.600000 -94.400000 3.762958
46.900000 -94.400000 3.782671
47.200000 -94.400000 3.801817
47.500000 -94.400000 3.817185
47.800000 -94.400000 3.831991
48.100000 -94.400000 3.844929
30.100000 -94.100000 3.628632
30.400000 -94.100000 3.670726
30.700000 -94.100000 3.695907
31.000000 -94.100000 3.707152
31.300000 -94.100000 3.719260
31.600000 -94.100000 3.727771
31.900000 -94.100000 3.726985
32.200000 -94.100000 3.719558
32.500000 -94.100000 3.704139
32.800000 -94.100000 3.694322
33.100000 -94.100000 3.700746
33.400000 -94.100000 3.706658
33.700000 -94.100000 3.710929
34.000000 -94.100000 3.694092
34.300000 -94.100000 3.696235
34.600000 -94.100000 3.676106
34.900000 -94.100000 3.683106
35.200000 -94.100000 3.696931
35.500000 -94.100000 3.721902
35.800000 -94.100000 3.737591
36.100000 -94.100000 3.744521
36.400000 -94.100000 3.745190
36.700000 -94.100000 3.746255
37.000000 -94.100000 3.743205
37.300000 -94.100000 3.743515
37.600000 -94.100000 3.744809
37.900000 -94.100000 3.746482
38.200000 -94.100000 3.741585
38.500000 -94.100000 3.736053
38.800000 -94.100000 3.725612
39.100000 -94.100000 3.714905
39.400000 -94.100000 3.717776
39.700000 -94.100000 3.721788
40.000000 -94.100000 3.719905
40.300000 -94.100000 3.712806
40.600000 -94.100000 3.698249
40.900000 -94.100000 3.689124
41.200000 -94.100000 3.671081
41.500000 -94.100000 3.659420
41.800000 -94.100000 3.656982
42.100000 -94.100000 3.660184
42.400000 -94.100000 3.666265
42.700000 -94.100000 3.683192
43.000000 -94.100000 3.697149
43.300000 -94.100000 3.714972
43.600000 -94.100000 3.712527
43.900000 -94.100000 3.707372
44.200000 -94.100000 3.700005
44.500000 -94.100000 3.698433
44.800000 -94.100000 3.697700
45.100000 -94.100000 3.696464
45.400000 -94.100000 3.706499
45.700000 -94.100000 3.716136
46.000000 -94.100000 3.723043
46.300000 -94.100000 3.741208
46.600000 -94.100000 3.758477
46.900000 -94.100000 3.777377
47.200000 -94.100000 3.796627
47.500000 -94.100000 3.814701
47.800000 -94.100000 3.830966
48.100000 -94.100000 3.843433
30.700000 -93.800000 3.672408
31.000000 -93.800000 3.696122
31.300000 -93.800000 3.709612
31.600000 -93.800000 3.722420
31.900000 -93.800000 3.726054
32.200000 -93.800000 3.721083
32.500000 -93.800000 3.707632
32.800000 -93.800000 3.686460
33.100000 -93.800000 3.693661
33.400000 -93.800000 3.709724
33.700000 -93.800000 3.718244
34.000000 -93.800000 3.715420
34.300000 -93.800000 3.703078
34.600000 -93.800000 3.684482
34.900000 -93.800000 3.683848
35.200000 -93.800000 3.696681
35.500000 -93.800000 3.718287
35.800000 -93.800000 3.736125
36.100000 -93.800000 3.738346
36.400000 -93.800000 3.740733
36.700000 -93.800000 3.735613
37.000000 -93.800000 3.738062
37.300000 -93.800000 3.736832
37.600000 -93.800000 3.738524
37.900000 -93.800000 3.744934
38.200000 -93.800000 3.746030
38.500000 -93.800000 3.744580
38.800000 -93.800000 3.733688
39.100000 -93.800000 3.721076
39.400000 -93.800000 3.721146
39.700000 -93.800000 3.723563
40.000000 -93.800000 3.724159
40.300000 -93.800000 3.719106
40.600000 -93.800000 3.707417
40.900000 -93.800000 3.699168
41.200000 -93.800000 3.683720
41.500000 -93.800000 3.672844
41.800000 -93.800000 3.672421
42.100000 -93.800000 3.672251
42.400000 -93.800000 3.673490
42.700000 -93.800000 3.686672
43.000000 -93.800000 3.695069
43.300000 -93.800000 3.701313
43.600000 -93.800000 3.696354
43.900000 -93.800000 3.682571
44.200000 -93.800000 3.672442
44.500000 -93.800000 3.662856
44.800000 -93.800000 3.668335
45.100000 -93.800000 3.675825
45.400000 -93.800000 3.692389
45.700000 -93.800000 3.707497
46.000000 -93.800000 3.719560
46.300000 -93.800000 3.737306
46.600000 -93.800000 3.761426
46.900000 -93.800000 3.776232
47.200000 -93.800000 3.791467
47.500000 -93.800000 3.810821
48.100000 -93.800000 3.835501
30.700000 -93.500000 3.664906
31.000000 -93.500000 3.680771
31.300000 -93.500000 3.693986
31.600000 -93.500000 3.709729
31.900000 -93.500000 3.720739
32.200000 -93.500000 3.721830
32.500000 -93.500000 3.700449
32.800000 -93.500000 3.690590
33.100000 -93.500000 3.702263
33.400000 -93.500000 3.709104
33.700000 -93.500000 3.722471
34.000000 -93.500000 3.733572
34.300000 -93.500000 3.715687
34.600000 -93.500000 3.692052
34.900000 -93.500000 3.685817
35.200000 -93.500000 3.699029
35.500000 -93.500000 3.720843
35.800000 -93.500000 3.738535
36.100000 -93.500000 3.745109
36.400000 -93.500000 3.741977
36.700000 -93.500000 3.735780
37.000000 -93.500000 3.730088
37.300000 -93.500000 3.727707
37.600000 -93.500000 3.734446
37.900000 -93.500000 3.737905
38.200000 -93.500000 3.744911
38.500000 -93.500000 3.745173
38.800000 -93.500000 3.740181
39.100000 -93.500000 3.731853
39.400000 -93.500000 3.727818
39.700000 -93.500000 3.725248
40.000000 -93.500000 3.721570
40.300000 -93.500000 3.725049
40.600000 -93.500000 3.720613
40.900000 -93.500000 3.709276
41.200000 -93.500000 3.699595
41.500000 -93.500000 3.691011
41.800000 -93.500000 3.690395
42.100000 -93.500000 3.688165
42.400000 -93.500000 3.691669
42.700000 -93.500000 3.699124
43.000000 -93.500000 3.695758
43.300000 -93.500000 3.693901
43.600000 -93.500000 3.685477
43.900000 -93.500000 3.665745
44.200000 -93.500000 3.652178
44.500000 -93.500000 3.642678
44.800000 -93.500000 3.647293
45.100000 -93.500000 3.651854
45.400000 -93.500000 3.675506
45.700000 -93.500000 3.696506
46.000000 -93.500000 3.719880
46.300000 -93.500000 3.737244
46.600000 -93.500000 3.761897
46.900000 -93.500000 3.776692
47.200000 -93.500000 3.786257
47.500000 -93.500000 3.805920
47.800000 -93.500000 3.811269
48.100000 -93.500000 3.828668
30.700000 -93.200000 3.660858
31.000000 -93.200000 3.670118
31.300000 -93.200000 3.689858
31.600000 -93.200000 3.704836
31.900000 -93.200000 3.713683
32.200000 -93.200000 3.717441
32.500000 -93.200000 3.700033
32.800000 -93.200000 3.694973
33.100000 -93.200000 3.695033
33.400000 -93.200000 3.711493
33.700000 -93.200000 3.729447
34.000000 -93.200000 3.732653
34.300000 -93.200000 3.718449
34.600000 -93.200000 3.700295
34.900000 -93.200000 3.695847
35.200000 -93.200000 3.709296
35.500000 -93.200000 3.726868
35.800000 -93.200000 3.744687
36.100000 -93.200000 3.744684
36.400000 -93.200000 3.736814
36.700000 -93.200000 3.726120
37.000000 -93.200000 3.724398
37.300000 -93.200000 3.721017
37.600000 -93.200000 3.731146
37.900000 -93.200000 3.740368
38.200000 -93.200000 3.748109
38.500000 -93.200000 3.747077
38.800000 -93.200000 3.745428
39.100000 -93.200000 3.739423
39.400000 -93.200000 3.738241
39.700000 -93.200000 3.727264
40.000000 -93.200000 3.725662
40.300000 -93.200000 3.725075
40.600000 -93.200000 3.726958
40.900000 -93.200000 3.720141
41.200000 -93.200000 3.711181
41.500000 -93.200000 3.706062
41.800000 -93.200000 3.706527
42.100000 -93.200000 3.705733
42.400000 -93.200000 3.707463
42.700000 -93.200000 3.713289
43.000000 -93.200000 3.713456
43.300000 -93.200000 3.696254
43.600000 -93.200000 3.680863
43.900000 -93.200000 3.658726
44.200000 -93.200000 3.645606
44.500000 -93.200000 3.639251
44.800000 -93.200000 3.629795
45.100000 -93.200000 3.646794
45.400000 -93.200000 3.663593
45.700000 -93.200000 3.681741
46.000000 -93.200000 3.711250
46.300000 -93.200000 3.740610
46.600000 -93.200000 3.762319
46.900000 -93.200000 3.778804
47.200000 -93.200000 3.783015
47.500000 -93.200000 3.800475
47.800000 -93.200000 3.811269
30.700000 -92.900000 3.636148
31.000000 -92.900000 3.667719
31.300000 -92.900000 3.680464
31.600000 -92.900000 3.690831
31.900000 -92.900000 3.708911
32.200000 -92.900000 3.707605
32.500000 -92.900000 3.701165
32.800000 -92.900000 3.696868
33.100000 -92.900000 3.703418
33.400000 -92.900000 3.721901
33.700000 -92.900000 3.726742
34.000000 -92.900000 3.733654
34.300000 -92.900000 3.720012
34.600000 -92.900000 3.702757
34.900000 -92.900000 3.698851
35.200000 -92.900000 3.718772
35.500000 -92.900000 3.743051
35.800000 -92.900000 3.750005
36.100000 -92.900000 3.744892
36.400000 -92.900000 3.731855
36.700000 -92.900000 3.719843
37.000000 -92.900000 3.717778
37.300000 -92.900000 3.716986
37.600000 -92.900000 3.729149
37.900000 -92.900000 3.738753
38.200000 -92.900000 3.749891
38.500000 -92.900000 3.746584
38.800000 -92.900000 3.745605
39.100000 -92.900000 3.745186
39.400000 -92.900000 3.742711
39.700000 -92.900000 3.734201
40.000000 -92.900000 3.730457
40.300000 -92.900000 3.732154
40.600000 -92.900000 3.737839
40.900000 -92.900000 3.732185
41.200000 -92.900000 3.725850
41.500000 -92.900000 3.719560
41.800000 -92.900000 3.710987
42.100000 -92.900000 3.711622
42.400000 -92.900000 3.723785
42.700000 -92.900000 3.736085
43.000000 -92.900000 3.730516
43.300000 -92.900000 3.710842
43.600000 -92.900000 3.689404
43.900000 -92.900000 3.664973
44.200000 -92.900000 3.647686
44.500000 -92.900000 3.637386
44.800000 -92.900000 3.633068
45.100000 -92.900000 3.650030
45.400000 -92.900000 3.655338
45.700000 -92.900000 3.678859
46.000000 -92.900000 3.701334
46.300000 -92.900000 3.736390
46.600000 -92.900000 3.763026
46.900000 -92.900000 3.779952
47.200000 -92.900000 3.783906
47.500000 -92.900000 3.798286
30.700000 -92.600000 3.643010
31.000000 -92.600000 3.652171
31.300000 -92.600000 3.676129
31.600000 -92.600000 3.695286
31.900000 -92.600000 3.706805
32.200000 -92.600000 3.713811
32.500000 -92.600000 3.702762
32.800000 -92.600000 3.700881
33.100000 -92.600000 3.710826
33.400000 -92.600000 3.715992
33.700000 -92.600000 3.721436
34.000000 -92.600000 3.726940
34.300000 -92.600000 3.719485
34.600000 -92.600000 3.706295
34.900000 -92.600000 3.700953
35.200000 -92.600000 3.727814
35.500000 -92.600000 3.747780
35.800000 -92.600000 3.756401
36.100000 -92.600000 3.743786
36.400000 -92.600000 3.732671
36.700000 -92.600000 3.718391
37.000000 -92.600000 3.709035
37.300000 -92.600000 3.713198
37.600000 -92.600000 3.721876
37.900000 -92.600000 3.738819
38.200000 -92.600000 3.748773
38.500000 -92.600000 3.741688
38.800000 -92.600000 3.746293
39.100000 -92.600000 3.743736
39.400000 -92.600000 3.743470
39.700000 -92.600000 3.735610
40.000000 -92.600000 3.736169
40.300000 -92.600000 3.744950
40.600000 -92.600000 3.747193
40.900000 -92.600000 3.748011
41.200000 -92.600000 3.738338
41.500000 -92.600000 3.733135
41.800000 -92.600000 3.724513
42.100000 -92.600000 3.726449
42.400000 -92.600000 3.741238
42.700000 -92.600000 3.754064
43.000000 -92.600000 3.750553
43.300000 -92.600000 3.729494
43.600000 -92.600000 3.708995
43.900000 -92.600000 3.677547
44.200000 -92.600000 3.660958
44.500000 -92.600000 3.652390
44.800000 -92.600000 3.667393
45.100000 -92.600000 3.665538
45.400000 -92.600000 3.668154
45.700000 -92.600000 3.679816
46.000000 -92.600000 3.702186
46.300000 -92.600000 3.738063
46.600000 -92.600000 3.763299
46.900000 -92.600000 3.777866
47.200000 -92.600000 3.790871
47.500000 -92.600000 3.798221
47.800000 -92.600000 3.808834
30.700000 -92.300000 3.649263
31.000000 -92.300000 3.649083
31.300000 -92.300000 3.672127
31.600000 -92.300000 3.690745
31.900000 -92.300000 3.703536
32.200000 -92.300000 3.710785
32.500000 -92.300000 3.712760
32.800000 -92.300000 3.713247
33.100000 -92.300000 3.717878
33.400000 -92.300000 3.720255
33.700000 -92.300000 3.719882
34.000000 -92.300000 3.719022
34.300000 -92.300000 3.717037
34.600000 -92.300000 3.706694
34.900000 -92.300000 3.721074
35.200000 -92.300000 3.740835
35.500000 -92.300000 3.758376
35.800000 -92.300000 3.760732
36.100000 -92.300000 3.750181
36.400000 -92.300000 3.733510
36.700000 -92.300000 3.717008
37.000000 -92.300000 3.708198
37.300000 -92.300000 3.711809
37.600000 -92.300000 3.718391
37.900000 -92.300000 3.725155
38.200000 -92.300000 3.734617
38.500000 -92.300000 3.734611
38.800000 -92.300000 3.742457
39.100000 -92.300000 3.742810
39.400000 -92.300000 3.744964
39.700000 -92.300000 3.741086
40.000000 -92.300000 3.748288
40.300000 -92.300000 3.753634
40.600000 -92.300000 3.761333
40.900000 -92.300000 3.761977
41.200000 -92.300000 3.760421
41.500000 -92.300000 3.750439
41.800000 -92.300000 3.741886
42.100000 -92.300000 3.740696
42.400000 -92.300000 3.755290
42.700000 -92.300000 3.771873
43.000000 -92.300000 3.772885
43.300000 -92.300000 3.749859
43.600000 -92.300000 3.727575
43.900000 -92.300000 3.701764
44.200000 -92.300000 3.684645
44.500000 -92.300000 3.684807
44.800000 -92.300000 3.690501
45.100000 -92.300000 3.692397
45.400000 -92.300000 3.681808
45.700000 -92.300000 3.686323
46.000000 -92.300000 3.704980
46.300000 -92.300000 3.729447
46.600000 -92.300000 3.755351
46.900000 -92.300000 3.777215
47.200000 -92.300000 3.800112
47.500000 -92.300000 3.805984
47.800000 -92.300000 3.814076
30.100000 -92.000000 3.668617
30.700000 -92.000000 3.638947
31.000000 -92.000000 3.645626
31.300000 -92.000000 3.667160
31.600000 -92.000000 3.692446
31.900000 -92.000000 3.706277
32.200000 -92.000000 3.718145
32.500000 -92.000000 3.717390
32.800000 -92.000000 3.720915
33.100000 -92.000000 3.724951
33.400000 -92.000000 3.721498
33.700000 -92.000000 3.719321
34.000000 -92.000000 3.720988
34.300000 -92.000000 3.718557
34.600000 -92.000000 3.724117
34.900000 -92.000000 3.732989
35.200000 -92.000000 3.748788
35.500000 -92.000000 3.762398
35.800000 -92.000000 3.758446
36.100000 -92.000000 3.752792
36.400000 -92.000000 3.736910
36.700000 -92.000000 3.718793
37.000000 -92.000000 3.716076
37.300000 -92.000000 3.719032
37.600000 -92.000000 3.719418
37.900000 -92.000000 3.725183
38.200000 -92.000000 3.725664
38.500000 -92.000000 3.726359
38.800000 -92.000000 3.727305
39.100000 -92.000000 3.731848
39.400000 -92.000000 3.736704
39.700000 -92.000000 3.749084
40.000000 -92.000000 3.757980
40.300000 -92.000000 3.765578
40.600000 -92.000000 3.771301
40.900000 -92.000000 3.774225
41.200000 -92.000000 3.774775
41.500000 -92.000000 3.759429
41.800000 -92.000000 3.749802
42.100000 -92.000000 3.750991
42.400000 -92.000000 3.758689
42.700000 -92.000000 3.769141
43.000000 -92.000000 3.773348
43.300000 -92.000000 3.763355
43.600000 -92.000000 3.742186
43.900000 -92.000000 3.718955
44.200000 -92.000000 3.708081
44.500000 -92.000000 3.698549
44.800000 -92.000000 3.711368
45.100000 -92.000000 3.712036
45.400000 -92.000000 3.702329
45.700000 -92.000000 3.699273
46.000000 -92.000000 3.702946
46.300000 -92.000000 3.723724
46.600000 -92.000000 3.752569
47.200000 -92.000000 3.805940
47.500000 -92.000000 3.817772
47.800000 -92.000000 3.824448
30.700000 -91.700000 3.636554
31.000000 -91.700000 3.650622
31.300000 -91.700000 3.672003
31.600000 -91.700000 3.689513
31.900000 -91.700000 3.707038
32.200000 -91.700000 3.718905
32.500000 -91.700000 3.720734
32.800000 -91.700000 3.727426
33.100000 -91.700000 3.728150
33.400000 -91.700000 3.723754
33.700000 -91.700000 3.729426
34.000000 -91.700000 3.721320
34.300000 -91.700000 3.720338
34.600000 -91.700000 3.725347
34.900000 -91.700000 3.737389
35.200000 -91.700000 3.757376
35.500000 -91.700000 3.761439
35.800000 -91.700000 3.764505
36.100000 -91.700000 3.755394
36.400000 -91.700000 3.744212
36.700000 -91.700000 3.732095
37.000000 -91.700000 3.726877
37.300000 -91.700000 3.726292
37.600000 -91.700000 3.726317
37.900000 -91.700000 3.723927
38.200000 -91.700000 3.719804
38.500000 -91.700000 3.716877
38.800000 -91.700000 3.718606
39.100000 -91.700000 3.720599
39.400000 -91.700000 3.731560
39.700000 -91.700000 3.748023
40.000000 -91.700000 3.761306
40.300000 -91.700000 3.774770
40.600000 -91.700000 3.781011
40.900000 -91.700000 3.784388
41.200000 -91.700000 3.776415
41.500000 -91.700000 3.763639
41.800000 -91.700000 3.752200
42.100000 -91.700000 3.755216
42.400000 -91.700000 3.757040
42.700000 -91.700000 3.763954
43.000000 -91.700000 3.767987
43.300000 -91.700000 3.760583
43.600000 -91.700000 3.751903
43.900000 -91.700000 3.734693
44.200000 -91.700000 3.722760
44.500000 -91.700000 3.718825
44.800000 -91.700000 3.721069
45.100000 -91.700000 3.726397
45.400000 -91.700000 3.723816
45.700000 -91.700000 3.710511
46.000000 -91.700000 3.703929
46.300000 -91.700000 3.703711
46.600000 -91.700000 3.747247
46.900000 -91.700000 3.766062
47.500000 -91.700000 3.829064
47.800000 -91.700000 3.830066
30.100000 -91.400000 3.666685
30.700000 -91.400000 3.643752
31.000000 -91.400000 3.658182
31.300000 -91.400000 3.664796
31.600000 -91.400000 3.688305
31.900000 -91.400000 3.710891
32.200000 -91.400000 3.720930
32.500000 -91.400000 3.724327
32.800000 -91.400000 3.725294
33.100000 -91.400000 3.726501
33.400000 -91.400000 3.727045
33.700000 -91.400000 3.733959
34.000000 -91.400000 3.729550
34.300000 -91.400000 3.724331
34.600000 -91.400000 3.727463
34.900000 -91.400000 3.741990
35.200000 -91.400000 3.763362
35.500000 -91.400000 3.774737
35.800000 -91.400000 3.772138
36.100000 -91.400000 3.762689
36.400000 -91.400000 3.746359
36.700000 -91.400000 3.739914
37.000000 -91.400000 3.737721
37.300000 -91.400000 3.732713
37.600000 -91.400000 3.726910
37.900000 -91.400000 3.720099
38.200000 -91.400000 3.711648
38.500000 -91.400000 3.711019
38.800000 -91.400000 3.716370
39.100000 -91.400000 3.726036
39.400000 -91.400000 3.727741
39.700000 -91.400000 3.749096
40.000000 -91.400000 3.763596
40.300000 -91.400000 3.780148
40.600000 -91.400000 3.785032
40.900000 -91.400000 3.786440
41.200000 -91.400000 3.779158
41.500000 -91.400000 3.767415
41.800000 -91.400000 3.755665
42.100000 -91.400000 3.746414
42.400000 -91.400000 3.748060
42.700000 -91.400000 3.752148
43.000000 -91.400000 3.754314
43.300000 -91.400000 3.752825
43.600000 -91.400000 3.750783
43.900000 -91.400000 3.739827
44.200000 -91.400000 3.730069
44.500000 -91.400000 3.729785
44.800000 -91.400000 3.730277
45.100000 -91.400000 3.737992
45.400000 -91.400000 3.737425
45.700000 -91.400000 3.721381
46.000000 -91.400000 3.710707
46.300000 -91.400000 3.697847
47.500000 -91.400000 3.846273
30.700000 -91.100000 3.643402
31.000000 -91.100000 3.648216
31.300000 -91.100000 3.667764
31.600000 -91.100000 3.694024
31.900000 -91.100000 3.709021
32.200000 -91.100000 3.719310
32.500000 -91.100000 3.719866
32.800000 -91.100000 3.721431
33.100000 -91.100000 3.720188
33.400000 -91.100000 3.725573
33.700000 -91.100000 3.733489
34.000000 -91.100000 3.729960
34.300000 -91.100000 3.735546
34.600000 -91.100000 3.736920
34.900000 -91.100000 3.751617
35.200000 -91.100000 3.772842
35.500000 -91.100000 3.779280
35.800000 -91.100000 3.774375
36.100000 -91.100000 3.766963
36.400000 -91.100000 3.752674
36.700000 -91.100000 3.746609
37.000000 -91.100000 3.746689
37.300000 -91.100000 3.741757
37.600000 -91.100000 3.733421
37.900000 -91.100000 3.719928
38.200000 -91.100000 3.704471
38.500000 -91.100000 3.703889
38.800000 -91.100000 3.706389
39.100000 -91.100000 3.719918
39.400000 -91.100000 3.732934
39.700000 -91.100000 3.746302
40.000000 -91.100000 3.764248
40.300000 -91.100000 3.779629
40.600000 -91.100000 3.780092
40.900000 -91.100000 3.782826
41.200000 -91.100000 3.777654
41.500000 -91.100000 3.770409
41.800000 -91.100000 3.756727
42.100000 -91.100000 3.742837
42.400000 -91.100000 3.737414
42.700000 -91.100000 3.740534
43.000000 -91.100000 3.739857
43.300000 -91.100000 3.740687
43.600000 -91.100000 3.746059
43.900000 -91.100000 3.742552
44.200000 -91.100000 3.737631
44.500000 -91.100000 3.740320
44.800000 -91.100000 3.737267
45.100000 -91.100000 3.744722
45.400000 -91.100000 3.743389
45.700000 -91.100000 3.725193
46.000000 -91.100000 3.713675
46.300000 -91.100000 3.703199
47.500000 -91.100000 3.851823
30.400000 -90.800000 3.706942
30.700000 -90.800000 3.640352
31.000000 -90.800000 3.635354
31.300000 -90.800000 3.660379
31.600000 -90.800000 3.685341
31.900000 -90.800000 3.709080
32.200000 -90.800000 3.711731
32.500000 -90.800000 3.713616
32.800000 -90.800000 3.710424
33.100000 -90.800000 3.717039
33.400000 -90.800000 3.723137
33.700000 -90.800000 3.734663
34.000000 -90.800000 3.744658
34.300000 -90.800000 3.745679
34.600000 -90.800000 3.752001
34.900000 -90.800000 3.767878
35.200000 -90.800000 3.774558
35.500000 -90.800000 3.783376
35.800000 -90.800000 3.774122
36.100000 -90.800000 3.764564
36.400000 -90.800000 3.758938
36.700000 -90.800000 3.749374
37.000000 -90.800000 3.744915
37.300000 -90.800000 3.741740
37.600000 -90.800000 3.731587
37.900000 -90.800000 3.713102
38.200000 -90.800000 3.699288
38.500000 -90.800000 3.700169
38.800000 -90.800000 3.700898
39.100000 -90.800000 3.710745
39.400000 -90.800000 3.725421
39.700000 -90.800000 3.739591
40.000000 -90.800000 3.755552
40.300000 -90.800000 3.769107
40.600000 -90.800000 3.769278
40.900000 -90.800000 3.775701
41.200000 -90.800000 3.772282
41.500000 -90.800000 3.771837
41.800000 -90.800000 3.759906
42.100000 -90.800000 3.744018
42.400000 -90.800000 3.734764
42.700000 -90.800000 3.732832
43.000000 -90.800000 3.732480
43.300000 -90.800000 3.739305
43.600000 -90.800000 3.742353
43.900000 -90.800000 3.748775
44.200000 -90.800000 3.748686
44.500000 -90.800000 3.744996
44.800000 -90.800000 3.744913
45.100000 -90.800000 3.740061
45.400000 -90.800000 3.747053
45.700000 -90.800000 3.739938
46.000000 -90.800000 3.719748
46.300000 -90.800000 3.711961
30.700000 -90.500000 3.632314
31.000000 -90.500000 3.642161
31.300000 -90.500000 3.668826
31.600000 -90.500000 3.700260
31.900000 -90.500000 3.710423
32.200000 -90.500000 3.704571
32.500000 -90.500000 3.694209
32.800000 -90.500000 3.695872
33.100000 -90.500000 3.707817
33.400000 -90.500000 3.715247
33.700000 -90.500000 3.730331
34.000000 -90.500000 3.750048
34.300000 -90.500000 3.761869
34.600000 -90.500000 3.771546
34.900000 -90.500000 3.779440
35.200000 -90.500000 3.781379
35.500000 -90.500000 3.783334
35.800000 -90.500000 3.770442
36.100000 -90.500000 3.760686
36.400000 -90.500000 3.757028
36.700000 -90.500000 3.750618
37.000000 -90.500000 3.747388
37.300000 -90.500000 3.738954
37.600000 -90.500000 3.726163
37.900000 -90.500000 3.706066
38.200000 -90.500000 3.698794
38.500000 -90.500000 3.696042
38.800000 -90.500000 3.696237
39.100000 -90.500000 3.705703
39.400000 -90.500000 3.718043
39.700000 -90.500000 3.736091
40.000000 -90.500000 3.745345
40.300000 -90.500000 3.756036
40.600000 -90.500000 3.757824
40.900000 -90.500000 3.764577
41.200000 -90.500000 3.762795
41.500000 -90.500000 3.769446
41.800000 -90.500000 3.762446
42.100000 -90.500000 3.752061
42.400000 -90.500000 3.742359
42.700000 -90.500000 3.736699
43.000000 -90.500000 3.733494
43.300000 -90.500000 3.739748
43.600000 -90.500000 3.748998
43.900000 -90.500000 3.758985
44.200000 -90.500000 3.754900
44.500000 -90.500000 3.750927
44.800000 -90.500000 3.746708
45.100000 -90.500000 3.752547
45.400000 -90.500000 3.745467
45.700000 -90.500000 3.746681
46.000000 -90.500000 3.738847
46.300000 -90.500000 3.719844
30.400000 -90.200000 3.633201
30.700000 -90.200000 3.631582
31.000000 -90.200000 3.640213
31.300000 -90.200000 3.682419
31.600000 -90.200000 3.693583
31.900000 -90.200000 3.704340
32.200000 -90.200000 3.699598
32.500000 -90.200000 3.681779
32.800000 -90.200000 3.679972
33.100000 -90.200000 3.687735
33.400000 -90.200000 3.703784
33.700000 -90.200000 3.730086
34.000000 -90.200000 3.754912
34.300000 -90.200000 3.777387
34.600000 -90.200000 3.790714
34.900000 -90.200000 3.789778
35.200000 -90.200000 3.783726
35.500000 -90.200000 3.767805
35.800000 -90.200000 3.765488
36.100000 -90.200000 3.760306
36.400000 -90.200000 3.754972
36.700000 -90.200000 3.754897
37.000000 -90.200000 3.745706
37.300000 -90.200000 3.737121
37.600000 -90.200000 3.716799
37.900000 -90.200000 3.704854
38.200000 -90.200000 3.699899
38.500000 -90.200000 3.691750
38.800000 -90.200000 3.695704
39.100000 -90.200000 3.700332
39.400000 -90.200000 3.714261
39.700000 -90.200000 3.727043
40.000000 -90.200000 3.739612
40.300000 -90.200000 3.746602
40.600000 -90.200000 3.749808
40.900000 -90.200000 3.750483
41.200000 -90.200000 3.757254
41.500000 -90.200000 3.765091
41.800000 -90.200000 3.763413
42.100000 -90.200000 3.761428
42.400000 -90.200000 3.757030
42.700000 -90.200000 3.749796
43.000000 -90.200000 3.742198
43.300000 -90.200000 3.753684
43.600000 -90.200000 3.763644
43.900000 -90.200000 3.772507
44.200000 -90.200000 3.770522
44.500000 -90.200000 3.763247
44.800000 -90.200000 3.757496
45.100000 -90.200000 3.752224
45.400000 -90.200000 3.750392
45.700000 -90.200000 3.758154
46.000000 -90.200000 3.747249
46.300000 -90.200000 3.736146
30.100000 -89.900000 3.669351
30.700000 -89.900000 3.631868
31.000000 -89.900000 3.645917
31.300000 -89.900000 3.682303
31.600000 -89.900000 3.705940
31.900000 -89.900000 3.699784
32.200000 -89.900000 3.687603
32.500000 -89.900000 3.674034
32.800000 -89.900000 3.662490
33.100000 -89.900000 3.671499
33.400000 -89.900000 3.693886
33.700000 -89.900000 3.715950
34.000000 -89.900000 3.752690
34.300000 -89.900000 3.783756
34.600000 -89.900000 3.807013
34.900000 -89.900000 3.799891
35.200000 -89.900000 3.777110
35.500000 -89.900000 3.762647
35.800000 -89.900000 3.753065
36.100000 -89.900000 3.758301
36.400000 -89.900000 3.759603
36.700000 -89.900000 3.755763
37.000000 -89.900000 3.745087
37.300000 -89.900000 3.738106
37.600000 -89.900000 3.720108
37.900000 -89.900000 3.709715
38.200000 -89.900000 3.699281
38.500000 -89.900000 3.689240
38.800000 -89.900000 3.691371
39.100000 -89.900000 3.692990
39.400000 -89.900000 3.710010
39.700000 -89.900000 3.719969
40.000000 -89.900000 3.727505
40.300000 -89.900000 3.732762
40.600000 -89.900000 3.735791
40.900000 -89.900000 3.736687
41.200000 -89.900000 3.744909
41.500000 -89.900000 3.757944
41.800000 -89.900000 3.762718
42.100000 -89.900000 3.771192
42.400000 -89.900000 3.763530
42.700000 -89.900000 3.760284
43.000000 -89.900000 3.769913
43.300000 -89.900000 3.788309
43.600000 -89.900000 3.781417
43.900000 -89.900000 3.781284
44.200000 -89.900000 3.785474
44.500000 -89.900000 3.772625
44.800000 -89.900000 3.763335
45.100000 -89.900000 3.749927
45.400000 -89.900000 3.757887
45.700000 -89.900000 3.768238
46.000000 -89.900000 3.761817
46.300000 -89.900000 3.753148
30.700000 -89.600000 3.633904
31.000000 -89.600000 3.655840
31.300000 -89.600000 3.681226
31.600000 -89.600000 3.696578
31.900000 -89.600000 3.697903
32.200000 -89.600000 3.687830
32.500000 -89.600000 3.672182
32.800000 -89.600000 3.663063
33.100000 -89.600000 3.659898
33.400000 -89.600000 3.681786
33.700000 -89.600000 3.699611
34.000000 -89.600000 3.730855
34.300000 -89.600000 3.780039
34.600000 -89.600000 3.806966
34.900000 -89.600000 3.802546
35.200000 -89.600000 3.772628
35.500000 -89.600000 3.751432
35.800000 -89.600000 3.745336
36.100000 -89.600000 3.750440
36.400000 -89.600000 3.764017
36.700000 -89.600000 3.751148
37.000000 -89.600000 3.749266
37.300000 -89.600000 3.732522
37.600000 -89.600000 3.716112
37.900000 -89.600000 3.704266
38.200000 -89.600000 3.697867
38.500000 -89.600000 3.691693
38.800000 -89.600000 3.692926
39.100000 -89.600000 3.695066
39.400000 -89.600000 3.704459
39.700000 -89.600000 3.713025
40.000000 -89.600000 3.719924
40.300000 -89.600000 3.721435
40.600000 -89.600000 3.723934
40.900000 -89.600000 3.720209
41.200000 -89.600000 3.728669
41.500000 -89.600000 3.748593
41.800000 -89.600000 3.763778
42.100000 -89.600000 3.779982
42.400000 -89.600000 3.775809
42.700000 -89.600000 3.775632
43.000000 -89.600000 3.790715
43.300000 -89.600000 3.800298
43.600000 -89.600000 3.799643
43.900000 -89.600000 3.799408
44.200000 -89.600000 3.794457
44.500000 -89.600000 3.782067
44.800000 -89.600000 3.770315
45.100000 -89.600000 3.761316
45.400000 -89.600000 3.758638
45.700000 -89.600000 3.774728
46.000000 -89.600000 3.772152
46.300000 -89.600000 3.758537
30.700000 -89.300000 3.638679
31.000000 -89.300000 3.666476
31.300000 -89.300000 3.688468
31.600000 -89.300000 3.690791
31.900000 -89.300000 3.692715
32.200000 -89.300000 3.684312
32.500000 -89.300000 3.677874
32.800000 -89.300000 3.663138
33.100000 -89.300000 3.657933
33.400000 -89.300000 3.667007
33.700000 -89.300000 3.689967
34.000000 -89.300000 3.725905
34.300000 -89.300000 3.778842
34.600000 -89.300000 3.816998
34.900000 -89.300000 3.804307
35.200000 -89.300000 3.775838
35.500000 -89.300000 3.748615
35.800000 -89.300000 3.749691
36.100000 -89.300000 3.757184
36.400000 -89.300000 3.760026
36.700000 -89.300000 3.753268
37.000000 -89.300000 3.748020
37.300000 -89.300000 3.734436
37.600000 -89.300000 3.717400
37.900000 -89.300000 3.701359
38.200000 -89.300000 3.697398
38.500000 -89.300000 3.690021
38.800000 -89.300000 3.690845
39.100000 -89.300000 3.699361
39.400000 -89.300000 3.703284
39.700000 -89.300000 3.709096
40.000000 -89.300000 3.714627
40.300000 -89.300000 3.714205
40.600000 -89.300000 3.709083
40.900000 -89.300000 3.712610
41.200000 -89.300000 3.717635
41.500000 -89.300000 3.744805
41.800000 -89.300000 3.765747
42.100000 -89.300000 3.783150
42.400000 -89.300000 3.791942
42.700000 -89.300000 3.794123
43.000000 -89.300000 3.794187
43.300000 -89.300000 3.808354
43.600000 -89.300000 3.809456
43.900000 -89.300000 3.808797
44.200000 -89.300000 3.800755
44.500000 -89.300000 3.787050
44.800000 -89.300000 3.773360
45.100000 -89.300000 3.768835
45.400000 -89.300000 3.767008
45.700000 -89.300000 3.775250
46.000000 -89.300000 3.775516
46.300000 -89.300000 3.768982
46.600000 -89.300000 3.752749
47.500000 -89.300000 3.686398
30.700000 -89.000000 3.644634
31.000000 -89.000000 3.673119
31.300000 -89.000000 3.695306
31.600000 -89.000000 3.694393
31.900000 -89.000000 3.691035
32.200000 -89.000000 3.687758
32.500000 -89.000000 3.676474
32.800000 -89.000000 3.666616
33.100000 -89.000000 3.661418
33.400000 -89.000000 3.663380
33.700000 -89.000000 3.690909
34.000000 -89.000000 3.730398
34.300000 -89.000000 3.768658
34.600000 -89.000000 3.803964
34.900000 -89.000000 3.809232
35.200000 -89.000000 3.793214
35.500000 -89.000000 3.767258
35.800000 -89.000000 3.755658
36.100000 -89.000000 3.754701
36.400000 -89.000000 3.753557
36.700000 -89.000000 3.755937
37.000000 -89.000000 3.748657
37.300000 -89.000000 3.739322
37.600000 -89.000000 3.719389
37.900000 -89.000000 3.706612
38.200000 -89.000000 3.702549
38.500000 -89.000000 3.696724
38.800000 -89.000000 3.702692
39.100000 -89.000000 3.702591
39.400000 -89.000000 3.703861
39.700000 -89.000000 3.702726
40.000000 -89.000000 3.711349
40.300000 -89.000000 3.712027
40.600000 -89.000000 3.703675
40.900000 -89.000000 3.705175
41.200000 -89.000000 3.708117
41.500000 -89.000000 3.733677
41.800000 -89.000000 3.763324
42.100000 -89.000000 3.781870
42.400000 -89.000000 3.801689
42.700000 -89.000000 3.803882
43.000000 -89.000000 3.802070
43.300000 -89.000000 3.811743
43.600000 -89.000000 3.812375
43.900000 -89.000000 3.811126
44.200000 -89.000000 3.803966
44.500000 -89.000000 3.788059
44.800000 -89.000000 3.777805
45.100000 -89.000000 3.772319
45.400000 -89.000000 3.770910
45.700000 -89.000000 3.773306
46.000000 -89.000000 3.776462
46.300000 -89.000000 3.781924
46.600000 -89.000000 3.778682
30.700000 -88.700000 3.646015
31.000000 -88.700000 3.663643
31.300000 -88.700000 3.692924
31.600000 -88.700000 3.695964
31.900000 -88.700000 3.698713
32.200000 -88.700000 3.692334
32.500000 -88.700000 3.676763
32.800000 -88.700000 3.676921
33.100000 -88.700000 3.664152
33.400000 -88.700000 3.672912
33.700000 -88.700000 3.699854
34.000000 -88.700000 3.722506
34.300000 -88.700000 3.765276
34.600000 -88.700000 3.787500
34.900000 -88.700000 3.796825
35.200000 -88.700000 3.788748
35.500000 -88.700000 3.773975
35.800000 -88.700000 3.763005
36.100000 -88.700000 3.758884
36.400000 -88.700000 3.747938
36.700000 -88.700000 3.749606
37.000000 -88.700000 3.743695
37.300000 -88.700000 3.737774
37.600000 -88.700000 3.722282
37.900000 -88.700000 3.713367
38.200000 -88.700000 3.701663
38.500000 -88.700000 3.699511
38.800000 -88.700000 3.700965
39.100000 -88.700000 3.710312
39.400000 -88.700000 3.704850
39.700000 -88.700000 3.702192
40.000000 -88.700000 3.709155
40.300000 -88.700000 3.705060
40.600000 -88.700000 3.703936
40.900000 -88.700000 3.702459
41.200000 -88.700000 3.708494
41.500000 -88.700000 3.736680
41.800000 -88.700000 3.764378
42.100000 -88.700000 3.789389
42.400000 -88.700000 3.807420
42.700000 -88.700000 3.798307
43.000000 -88.700000 3.804451
43.300000 -88.700000 3.811115
43.600000 -88.700000 3.814061
43.900000 -88.700000 3.807951
44.200000 -88.700000 3.802281
44.500000 -88.700000 3.789744
44.800000 -88.700000 3.781711
45.100000 -88.700000 3.777854
45.400000 -88.700000 3.772301
45.700000 -88.700000 3.772579
46.000000 -88.700000 3.780213
46.300000 -88.700000 3.783452
46.900000 -88.700000 3.753861
30.700000 -88.400000 3.644929
31.000000 -88.400000 3.651486
31.300000 -88.400000 3.674529
31.600000 -88.400000 3.691355
31.900000 -88.400000 3.703332
32.200000 -88.400000 3.704159
32.500000 -88.400000 3.693790
32.800000 -88.400000 3.684151
33.100000 -88.400000 3.681334
33.400000 -88.400000 3.684919
33.700000 -88.400000 3.710368
34.000000 -88.400000 3.739998
34.300000 -88.400000 3.758324
34.600000 -88.400000 3.772607
34.900000 -88.400000 3.784469
35.200000 -88.400000 3.786407
35.500000 -88.400000 3.776798
35.800000 -88.400000 3.765720
36.100000 -88.400000 3.762107
36.400000 -88.400000 3.747784
36.700000 -88.400000 3.740346
37.000000 -88.400000 3.732692
37.300000 -88.400000 3.734016
37.600000 -88.400000 3.721957
37.900000 -88.400000 3.713016
38.200000 -88.400000 3.699928
38.500000 -88.400000 3.690993
38.800000 -88.400000 3.698419
39.100000 -88.400000 3.703710
39.400000 -88.400000 3.698518
39.700000 -88.400000 3.708127
40.000000 -88.400000 3.706927
40.300000 -88.400000 3.704936
40.600000 -88.400000 3.706397
40.900000 -88.400000 3.700185
41.200000 -88.400000 3.711374
41.500000 -88.400000 3.738249
41.800000 -88.400000 3.768359
42.100000 -88.400000 3.786153
42.400000 -88.400000 3.803209
42.700000 -88.400000 3.802048
43.000000 -88.400000 3.801396
43.300000 -88.400000 3.806028
43.600000 -88.400000 3.812606
43.900000 -88.400000 3.806262
44.200000 -88.400000 3.796442
44.500000 -88.400000 3.790371
44.800000 -88.400000 3.783856
45.100000 -88.400000 3.778753
45.400000 -88.400000 3.778008
45.700000 -88.400000 3.773520
46.000000 -88.400000 3.780356
46.300000 -88.400000 3.785522
46.600000 -88.400000 3.785833
30.700000 -88.100000 3.645447
31.000000 -88.100000 3.648891
31.300000 -88.100000 3.665142
31.600000 -88.100000 3.679792
31.900000 -88.100000 3.704877
32.200000 -88.100000 3.718462
32.500000 -88.100000 3.698378
32.800000 -88.100000 3.682884
33.100000 -88.100000 3.685639
33.400000 -88.100000 3.693696
33.700000 -88.100000 3.718877
34.000000 -88.100000 3.741214
34.300000 -88.100000 3.750469
34.600000 -88.100000 3.760601
34.900000 -88.100000 3.766361
35.200000 -88.100000 3.774550
35.500000 -88.100000 3.771712
35.800000 -88.100000 3.761275
36.100000 -88.100000 3.751277
36.400000 -88.100000 3.741752
36.700000 -88.100000 3.736473
37.000000 -88.100000 3.727356
37.300000 -88.100000 3.725160
37.600000 -88.100000 3.718270
37.900000 -88.100000 3.711982
38.200000 -88.100000 3.698663
38.500000 -88.100000 3.692754
38.800000 -88.100000 3.693227
39.100000 -88.100000 3.689989
39.400000 -88.100000 3.694272
39.700000 -88.100000 3.702343
40.000000 -88.100000 3.704412
40.300000 -88.100000 3.702575
40.600000 -88.100000 3.709645
40.900000 -88.100000 3.700588
41.200000 -88.100000 3.721833
41.500000 -88.100000 3.745081
41.800000 -88.100000 3.761994
42.100000 -88.100000 3.778100
43.900000 -88.100000 3.800315
44.200000 -88.100000 3.793098
44.500000 -88.100000 3.791375
44.800000 -88.100000 3.783540
45.100000 -88.100000 3.781991
45.400000 -88.100000 3.770037
45.700000 -88.100000 3.768407
46.000000 -88.100000 3.772702
46.300000 -88.100000 3.780849
30.700000 -87.800000 3.653081
31.000000 -87.800000 3.644956
31.300000 -87.800000 3.649703
31.600000 -87.800000 3.675065
31.900000 -87.800000 3.702291
32.200000 -87.800000 3.721664
32.500000 -87.800000 3.705305
32.800000 -87.800000 3.682959
33.100000 -87.800000 3.685627
33.400000 -87.800000 3.697786
33.700000 -87.800000 3.716935
34.000000 -87.800000 3.737672
34.300000 -87.800000 3.746194
34.600000 -87.800000 3.747216
34.900000 -87.800000 3.748412
35.200000 -87.800000 3.759503
35.500000 -87.800000 3.762773
35.800000 -87.800000 3.751659
36.100000 -87.800000 3.740092
36.400000 -87.800000 3.738304
36.700000 -87.800000 3.729010
37.000000 -87.800000 3.720366
37.300000 -87.800000 3.722260
37.600000 -87.800000 3.710568
37.900000 -87.800000 3.708112
38.200000 -87.800000 3.702110
38.500000 -87.800000 3.686986
38.800000 -87.800000 3.695926
39.100000 -87.800000 3.693541
39.400000 -87.800000 3.696486
39.700000 -87.800000 3.697070
40.000000 -87.800000 3.702204
40.300000 -87.800000 3.701208
40.600000 -87.800000 3.712563
40.900000 -87.800000 3.712802
41.200000 -87.800000 3.723731
41.500000 -87.800000 3.741354
41.800000 -87.800000 3.761860
42.100000 -87.800000 3.779846
44.200000 -87.800000 3.790332
44.500000 -87.800000 3.786067
44.800000 -87.800000 3.782198
45.100000 -87.800000 3.780247
45.400000 -87.800000 3.777005
45.700000 -87.800000 3.771072
46.000000 -87.800000 3.763794
46.300000 -87.800000 3.764533
30.700000 -87.500000 3.665990
31.000000 -87.500000 3.660764
31.300000 -87.500000 3.656598
31.600000 -87.500000 3.677862
31.900000 -87.500000 3.701136
32.200000 -87.500000 3.720235
32.500000 -87.500000 3.693879
32.800000 -87.500000 3.681966
33.100000 -87.500000 3.680517
33.400000 -87.500000 3.704550
33.700000 -87.500000 3.715797
34.000000 -87.500000 3.727688
34.300000 -87.500000 3.729844
34.600000 -87.500000 3.730800
34.900000 -87.500000 3.733441
35.200000 -87.500000 3.741583
35.500000 -87.500000 3.752400
35.800000 -87.500000 3.745271
36.100000 -87.500000 3.734620
36.400000 -87.500000 3.734101
36.700000 -87.500000 3.724456
37.000000 -87.500000 3.709223
37.300000 -87.500000 3.712369
37.600000 -87.500000 3.700114
37.900000 -87.500000 3.697051
38.200000 -87.500000 3.687811
38.500000 -87.500000 3.674923
38.800000 -87.500000 3.684350
39.100000 -87.500000 3.693908
39.400000 -87.500000 3.695170
39.700000 -87.500000 3.695704
40.000000 -87.500000 3.704396
40.300000 -87.500000 3.704542
40.600000 -87.500000 3.721218
40.900000 -87.500000 3.714925
41.200000 -87.500000 3.725490
41.500000 -87.500000 3.757335
42.100000 -87.500000 3.783424
45.100000 -87.500000 3.767518
45.400000 -87.500000 3.771541
45.700000 -87.500000 3.765332
46.000000 -87.500000 3.755997
46.300000 -87.500000 3.750225
30.700000 -87.200000 3.668828
31.000000 -87.200000 3.674837
31.300000 -87.200000 3.677607
31.600000 -87.200000 3.688581
31.900000 -87.200000 3.701148
32.200000 -87.200000 3.705546
32.500000 -87.200000 3.687617
32.800000 -87.200000 3.678090
33.100000 -87.200000 3.683111
33.400000 -87.200000 3.699498
33.700000 -87.200000 3.711806
34.000000 -87.200000 3.722353
34.300000 -87.200000 3.723068
34.600000 -87.200000 3.716680
34.900000 -87.200000 3.716198
35.200000 -87.200000 3.726527
35.500000 -87.200000 3.735193
35.800000 -87.200000 3.740158
36.100000 -87.200000 3.731970
36.400000 -87.200000 3.726994
36.700000 -87.200000 3.716172
37.000000 -87.200000 3.696281
37.300000 -87.200000 3.695337
37.600000 -87.200000 3.683434
37.900000 -87.200000 3.679231
38.200000 -87.200000 3.675193
38.500000 -87.200000 3.670705
38.800000 -87.200000 3.677469
39.100000 -87.200000 3.688554
39.400000 -87.200000 3.683319
39.700000 -87.200000 3.693727
40.000000 -87.200000 3.701897
40.300000 -87.200000 3.718992
40.600000 -87.200000 3.725862
40.900000 -87.200000 3.721509
41.200000 -87.200000 3.727755
45.700000 -87.200000 3.757127
46.000000 -87.200000 3.737123
46.300000 -87.200000 3.725258
30.700000 -86.900000 3.678773
31.000000 -86.900000 3.691801
31.300000 -86.900000 3.695928
31.600000 -86.900000 3.709060
31.900000 -86.900000 3.711035
32.200000 -86.900000 3.701879
32.500000 -86.900000 3.691620
32.800000 -86.900000 3.673683
33.100000 -86.900000 3.678446
33.400000 -86.900000 3.688758
33.700000 -86.900000 3.698626
34.000000 -86.900000 3.710874
34.300000 -86.900000 3.708667
34.600000 -86.900000 3.699079
34.900000 -86.900000 3.700878
35.200000 -86.900000 3.711872
35.500000 -86.900000 3.729396
35.800000 -86.900000 3.730805
36.100000 -86.900000 3.725113
36.400000 -86.900000 3.715840
36.700000 -86.900000 3.702195
37.000000 -86.900000 3.686656
37.300000 -86.900000 3.678850
37.600000 -86.900000 3.673888
37.900000 -86.900000 3.669257
38.200000 -86.900000 3.664532
38.500000 -86.900000 3.662034
38.800000 -86.900000 3.671451
39.100000 -86.900000 3.678425
39.400000 -86.900000 3.695483
39.700000 -86.900000 3.701050
40.000000 -86.900000 3.712838
40.300000 -86.900000 3.735493
40.600000 -86.900000 3.734301
40.900000 -86.900000 3.735055
41.200000 -86.900000 3.747301
45.700000 -86.900000 3.750782
46.000000 -86.900000 3.702563
46.300000 -86.900000 3.682354
30.700000 -86.600000 3.699955
31.000000 -86.600000 3.702270
31.300000 -86.600000 3.714120
31.600000 -86.600000 3.719684
31.900000 -86.600000 3.720242
32.200000 -86.600000 3.710985
32.500000 -86.600000 3.699994
32.800000 -86.600000 3.668661
33.100000 -86.600000 3.669900
33.400000 -86.600000 3.676083
33.700000 -86.600000 3.687780
34.000000 -86.600000 3.695981
34.300000 -86.600000 3.698423
34.600000 -86.600000 3.691176
34.900000 -86.600000 3.693815
35.200000 -86.600000 3.709179
35.500000 -86.600000 3.720702
35.800000 -86.600000 3.717926
36.100000 -86.600000 3.712903
36.400000 -86.600000 3.702638
36.700000 -86.600000 3.689676
37.000000 -86.600000 3.680667
37.300000 -86.600000 3.674843
37.600000 -86.600000 3.669269
37.900000 -86.600000 3.662794
38.200000 -86.600000 3.652888
38.500000 -86.600000 3.656099
38.800000 -86.600000 3.671370
39.100000 -86.600000 3.675079
39.400000 -86.600000 3.694237
39.700000 -86.600000 3.704259
40.000000 -86.600000 3.735095
40.300000 -86.600000 3.760679
