31.900000 -92.300000 4.110773
32.200000 -92.300000 4.114911
32.500000 -92.300000 4.119497
32.800000 -92.300000 4.124399
33.100000 -92.300000 4.129448
33.400000 -92.300000 4.134302
33.700000 -92.300000 4.139586
34.000000 -92.300000 4.144935
34.300000 -92.300000 4.150943
34.600000 -92.300000 4.157533
34.900000 -92.300000 4.165191
35.200000 -92.300000 4.173398
35.500000 -92.300000 4.182327
35.800000 -92.300000 4.191849
36.100000 -92.300000 4.202189
36.400000 -92.300000 4.213034
36.700000 -92.300000 4.223189
37.000000 -92.300000 4.232163
37.300000 -92.300000 4.239625
37.600000 -92.300000 4.245111
37.900000 -92.300000 4.248713
38.200000 -92.300000 4.250537
38.500000 -92.300000 4.251110
38.800000 -92.300000 4.251221
39.100000 -92.300000 4.251069
39.400000 -92.300000 4.250482
39.700000 -92.300000 4.250520
40.000000 -92.300000 4.251491
40.300000 -92.300000 4.252897
40.600000 -92.300000 4.254329
40.900000 -92.300000 4.255853
41.200000 -92.300000 4.257399
41.500000 -92.300000 4.258457
41.800000 -92.300000 4.259500
42.100000 -92.300000 4.260140
42.400000 -92.300000 4.259809
42.700000 -92.300000 4.258913
43.000000 -92.300000 4.257506
43.300000 -92.300000 4.255997
43.600000 -92.300000 4.254468
43.900000 -92.300000 4.252911
44.200000 -92.300000 4.251431
44.500000 -92.300000 4.250332
44.800000 -92.300000 4.249780
45.100000 -92.300000 4.248909
45.400000 -92.300000 4.248189
45.700000 -92.300000 4.247754
46.000000 -92.300000 4.247529
46.300000 -92.300000 4.248550
46.600000 -92.300000 4.249978
46.900000 -92.300000 4.252274
47.200000 -92.300000 4.254857
47.500000 -92.300000 4.257499
47.800000 -92.300000 4.260964
29.800000 -92.000000 4.091273
30.100000 -92.000000 4.092972
30.400000 -92.000000 4.094907
30.700000 -92.000000 4.097660
31.000000 -92.000000 4.101060
31.300000 -92.000000 4.104735
31.600000 -92.000000 4.108652
31.900000 -92.000000 4.112988
32.200000 -92.000000 4.117665
32.500000 -92.000000 4.123046
32.800000 -92.000000 4.128605
33.100000 -92.000000 4.133794
33.400000 -92.000000 4.138631
33.700000 -92.000000 4.143504
34.000000 -92.000000 4.148312
34.300000 -92.000000 4.153447
34.600000 -92.000000 4.159223
34.900000 -92.000000 4.165385
35.200000 -92.000000 4.172274
35.500000 -92.000000 4.180189
35.800000 -92.000000 4.189143
36.100000 -92.000000 4.198978
36.400000 -92.000000 4.209504
36.700000 -92.000000 4.219709
37.000000 -92.000000 4.228875
37.300000 -92.000000 4.236156
37.600000 -92.000000 4.241668
37.900000 -92.000000 4.245571
38.200000 -92.000000 4.247725
38.500000 -92.000000 4.248840
38.800000 -92.000000 4.249318
39.100000 -92.000000 4.249636
39.400000 -92.000000 4.249686
39.700000 -92.000000 4.250415
40.000000 -92.000000 4.251892
40.300000 -92.000000 4.253676
40.600000 -92.000000 4.255450
40.900000 -92.000000 4.256856
41.200000 -92.000000 4.257942
41.500000 -92.000000 4.258920
41.800000 -92.000000 4.259473
42.100000 -92.000000 4.259545
42.400000 -92.000000 4.259087
42.700000 -92.000000 4.258386
43.000000 -92.000000 4.256788
43.300000 -92.000000 4.255370
43.600000 -92.000000 4.254231
43.900000 -92.000000 4.253166
44.200000 -92.000000 4.251860
44.500000 -92.000000 4.251237
44.800000 -92.000000 4.250971
45.100000 -92.000000 4.250391
45.400000 -92.000000 4.249272
45.700000 -92.000000 4.248473
46.000000 -92.000000 4.247765
46.300000 -92.000000 4.248057
46.600000 -92.000000 4.249125
46.900000 -92.000000 4.251908
47.200000 -92.000000 4.253505
47.500000 -92.000000 4.255251
47.800000 -92.000000 4.257263
29.800000 -91.700000 4.091185
30.100000 -91.700000 4.093469
30.400000 -91.700000 4.095212
30.700000 -91.700000 4.098511
31.000000 -91.700000 4.102422
31.300000 -91.700000 4.106531
31.600000 -91.700000 4.111260
31.900000 -91.700000 4.116274
32.200000 -91.700000 4.121747
32.500000 -91.700000 4.127534
32.800000 -91.700000 4.133553
33.100000 -91.700000 4.138879
33.400000 -91.700000 4.143691
33.700000 -91.700000 4.148554
34.000000 -91.700000 4.152767
34.300000 -91.700000 4.156576
34.600000 -91.700000 4.161181
34.900000 -91.700000 4.166316
35.200000 -91.700000 4.172030
35.500000 -91.700000 4.178978
35.800000 -91.700000 4.187257
36.100000 -91.700000 4.196813
36.400000 -91.700000 4.206980
36.700000 -91.700000 4.216999
37.000000 -91.700000 4.225873
37.300000 -91.700000 4.232887
37.600000 -91.700000 4.238482
37.900000 -91.700000 4.242755
38.200000 -91.700000 4.245053
38.500000 -91.700000 4.246235
38.800000 -91.700000 4.247065
39.100000 -91.700000 4.247671
39.400000 -91.700000 4.248419
39.700000 -91.700000 4.249853
40.000000 -91.700000 4.251807
40.300000 -91.700000 4.253638
40.600000 -91.700000 4.255614
40.900000 -91.700000 4.256710
41.200000 -91.700000 4.257728
41.500000 -91.700000 4.258367
41.800000 -91.700000 4.258366
42.100000 -91.700000 4.257877
42.400000 -91.700000 4.257207
42.700000 -91.700000 4.256476
43.000000 -91.700000 4.255274
43.300000 -91.700000 4.254098
43.600000 -91.700000 4.253223
43.900000 -91.700000 4.252625
44.200000 -91.700000 4.252090
44.500000 -91.700000 4.251729
44.800000 -91.700000 4.251845
45.100000 -91.700000 4.251373
45.400000 -91.700000 4.250340
45.700000 -91.700000 4.249261
46.000000 -91.700000 4.248647
46.300000 -91.700000 4.248117
46.600000 -91.700000 4.248809
46.900000 -91.700000 4.250816
47.200000 -91.700000 4.252760
47.500000 -91.700000 4.253681
47.800000 -91.700000 4.255407
29.800000 -91.400000 4.091096
30.100000 -91.400000 4.093819
30.400000 -91.400000 4.096452
30.700000 -91.400000 4.099858
31.000000 -91.400000 4.104295
31.300000 -91.400000 4.109323
31.600000 -91.400000 4.114746
31.900000 -91.400000 4.120633
32.200000 -91.400000 4.126840
32.500000 -91.400000 4.133184
32.800000 -91.400000 4.139488
33.100000 -91.400000 4.145196
33.400000 -91.400000 4.149807
33.700000 -91.400000 4.154257
34.000000 -91.400000 4.157829
34.300000 -91.400000 4.161135
34.600000 -91.400000 4.164905
34.900000 -91.400000 4.169171
35.200000 -91.400000 4.173434
35.500000 -91.400000 4.179221
35.800000 -91.400000 4.186761
36.100000 -91.400000 4.195652
36.400000 -91.400000 4.205047
36.700000 -91.400000 4.214683
37.000000 -91.400000 4.223126
37.300000 -91.400000 4.230287
37.600000 -91.400000 4.235558
37.900000 -91.400000 4.239725
38.200000 -91.400000 4.242025
38.500000 -91.400000 4.243313
38.800000 -91.400000 4.244214
39.100000 -91.400000 4.245230
39.400000 -91.400000 4.246778
39.700000 -91.400000 4.248470
40.000000 -91.400000 4.250970
40.300000 -91.400000 4.253047
40.600000 -91.400000 4.254888
40.900000 -91.400000 4.256010
41.200000 -91.400000 4.257023
41.500000 -91.400000 4.257094
41.800000 -91.400000 4.256634
42.100000 -91.400000 4.255554
42.400000 -91.400000 4.254567
42.700000 -91.400000 4.253737
43.000000 -91.400000 4.252798
43.300000 -91.400000 4.252201
43.600000 -91.400000 4.251941
43.900000 -91.400000 4.251767
44.200000 -91.400000 4.251756
44.500000 -91.400000 4.251707
44.800000 -91.400000 4.251711
45.100000 -91.400000 4.251805
45.400000 -91.400000 4.251254
45.700000 -91.400000 4.250169
46.000000 -91.400000 4.249168
46.300000 -91.400000 4.247895
47.200000 -91.400000 4.251070
47.500000 -91.400000 4.252362
29.800000 -91.100000 4.091118
30.100000 -91.100000 4.093937
30.400000 -91.100000 4.098011
30.700000 -91.100000 4.102007
31.000000 -91.100000 4.107084
31.300000 -91.100000 4.112679
31.600000 -91.100000 4.119040
31.900000 -91.100000 4.125907
32.200000 -91.100000 4.132747
32.500000 -91.100000 4.139676
32.800000 -91.100000 4.146315
33.100000 -91.100000 4.152103
33.400000 -91.100000 4.156821
33.700000 -91.100000 4.161083
34.000000 -91.100000 4.164401
34.300000 -91.100000 4.167171
34.600000 -91.100000 4.169998
34.900000 -91.100000 4.173135
35.200000 -91.100000 4.176838
35.500000 -91.100000 4.181557
35.800000 -91.100000 4.187812
36.100000 -91.100000 4.195341
36.400000 -91.100000 4.203799
36.700000 -91.100000 4.212558
37.000000 -91.100000 4.220953
37.300000 -91.100000 4.227943
37.600000 -91.100000 4.233191
37.900000 -91.100000 4.237124
38.200000 -91.100000 4.239481
38.500000 -91.100000 4.240542
38.800000 -91.100000 4.241578
39.100000 -91.100000 4.242711
39.400000 -91.100000 4.244481
39.700000 -91.100000 4.246621
40.000000 -91.100000 4.249394
40.300000 -91.100000 4.251474
40.600000 -91.100000 4.253364
40.900000 -91.100000 4.254341
41.200000 -91.100000 4.255133
41.500000 -91.100000 4.254832
41.800000 -91.100000 4.254039
42.100000 -91.100000 4.252545
42.400000 -91.100000 4.251266
42.700000 -91.100000 4.250328
43.000000 -91.100000 4.249784
43.300000 -91.100000 4.249699
43.600000 -91.100000 4.249922
43.900000 -91.100000 4.250333
44.200000 -91.100000 4.250943
44.500000 -91.100000 4.251081
44.800000 -91.100000 4.251015
45.100000 -91.100000 4.251044
45.400000 -91.100000 4.250904
45.700000 -91.100000 4.250428
46.000000 -91.100000 4.249643
46.300000 -91.100000 4.248437
46.900000 -91.100000 4.247826
47.200000 -91.100000 4.249670
47.500000 -91.100000 4.251151
29.500000 -90.800000 4.087889
29.800000 -90.800000 4.091002
30.100000 -90.800000 4.094362
30.400000 -90.800000 4.099131
30.700000 -90.800000 4.104493
31.000000 -90.800000 4.110295
31.300000 -90.800000 4.116682
31.600000 -90.800000 4.124088
31.900000 -90.800000 4.131878
32.200000 -90.800000 4.139530
32.500000 -90.800000 4.147184
32.800000 -90.800000 4.154243
33.100000 -90.800000 4.160105
33.400000 -90.800000 4.165086
33.700000 -90.800000 4.169125
34.000000 -90.800000 4.172147
34.300000 -90.800000 4.174297
34.600000 -90.800000 4.176277
34.900000 -90.800000 4.178564
35.200000 -90.800000 4.181235
35.500000 -90.800000 4.184909
35.800000 -90.800000 4.190023
36.100000 -90.800000 4.196260
36.400000 -90.800000 4.203156
36.700000 -90.800000 4.210788
37.000000 -90.800000 4.218514
37.300000 -90.800000 4.225349
37.600000 -90.800000 4.230539
37.900000 -90.800000 4.234430
38.200000 -90.800000 4.237023
38.500000 -90.800000 4.238266
38.800000 -90.800000 4.239496
39.100000 -90.800000 4.240713
39.400000 -90.800000 4.242448
39.700000 -90.800000 4.244446
40.000000 -90.800000 4.247169
40.300000 -90.800000 4.249247
40.600000 -90.800000 4.250955
40.900000 -90.800000 4.251826
41.200000 -90.800000 4.252243
41.500000 -90.800000 4.251643
41.800000 -90.800000 4.250471
42.100000 -90.800000 4.249003
42.400000 -90.800000 4.247676
42.700000 -90.800000 4.246761
43.000000 -90.800000 4.246648
43.300000 -90.800000 4.247067
43.600000 -90.800000 4.247813
43.900000 -90.800000 4.248709
44.200000 -90.800000 4.249406
44.500000 -90.800000 4.249818
44.800000 -90.800000 4.249963
45.100000 -90.800000 4.250102
45.400000 -90.800000 4.250272
45.700000 -90.800000 4.250184
46.000000 -90.800000 4.249562
46.300000 -90.800000 4.248609
47.500000 -90.800000 4.249008
29.500000 -90.500000 4.088575
29.800000 -90.500000 4.091979
30.100000 -90.500000 4.095029
30.400000 -90.500000 4.100250
30.700000 -90.500000 4.107239
31.000000 -90.500000 4.113989
31.300000 -90.500000 4.121410
31.600000 -90.500000 4.129671
31.900000 -90.500000 4.138399
32.200000 -90.500000 4.147015
32.500000 -90.500000 4.155196
32.800000 -90.500000 4.162850
33.100000 -90.500000 4.169197
33.400000 -90.500000 4.174279
33.700000 -90.500000 4.178451
34.000000 -90.500000 4.181194
34.300000 -90.500000 4.182653
34.600000 -90.500000 4.183931
34.900000 -90.500000 4.185356
35.200000 -90.500000 4.187046
35.500000 -90.500000 4.189783
35.800000 -90.500000 4.193632
36.100000 -90.500000 4.198440
36.400000 -90.500000 4.203656
36.700000 -90.500000 4.209716
37.000000 -90.500000 4.215986
37.300000 -90.500000 4.222097
37.600000 -90.500000 4.227155
37.900000 -90.500000 4.231497
38.200000 -90.500000 4.234184
38.500000 -90.500000 4.236011
38.800000 -90.500000 4.237451
39.100000 -90.500000 4.238831
39.400000 -90.500000 4.240360
39.700000 -90.500000 4.242365
40.000000 -90.500000 4.244523
40.300000 -90.500000 4.246317
40.600000 -90.500000 4.247820
40.900000 -90.500000 4.248597
41.200000 -90.500000 4.248596
41.500000 -90.500000 4.247792
41.800000 -90.500000 4.246574
42.100000 -90.500000 4.245393
42.400000 -90.500000 4.244259
42.700000 -90.500000 4.243627
43.000000 -90.500000 4.243841
43.300000 -90.500000 4.244807
43.600000 -90.500000 4.245952
43.900000 -90.500000 4.246978
44.200000 -90.500000 4.247734
44.500000 -90.500000 4.248482
44.800000 -90.500000 4.248838
45.100000 -90.500000 4.248906
45.400000 -90.500000 4.248753
45.700000 -90.500000 4.248724
46.000000 -90.500000 4.248608
46.300000 -90.500000 4.247983
47.500000 -90.500000 4.245634
47.800000 -90.500000 4.246013
29.500000 -90.200000 4.089055
29.800000 -90.200000 4.092866
30.100000 -90.200000 4.096764
30.400000 -90.200000 4.103107
30.700000 -90.200000 4.110033
31.000000 -90.200000 4.117653
31.300000 -90.200000 4.126217
31.600000 -90.200000 4.135336
31.900000 -90.200000 4.145094
32.200000 -90.200000 4.154501
32.500000 -90.200000 4.163662
32.800000 -90.200000 4.171816
33.100000 -90.200000 4.178743
33.400000 -90.200000 4.184144
33.700000 -90.200000 4.188204
34.000000 -90.200000 4.190370
34.300000 -90.200000 4.191713
34.600000 -90.200000 4.192775
34.900000 -90.200000 4.193499
35.200000 -90.200000 4.194347
35.500000 -90.200000 4.195870
35.800000 -90.200000 4.198134
36.100000 -90.200000 4.201232
36.400000 -90.200000 4.204972
36.700000 -90.200000 4.208996
37.000000 -90.200000 4.213766
37.300000 -90.200000 4.218780
37.600000 -90.200000 4.223578
37.900000 -90.200000 4.227969
38.200000 -90.200000 4.231234
38.500000 -90.200000 4.233382
38.800000 -90.200000 4.235254
39.100000 -90.200000 4.236867
39.400000 -90.200000 4.238430
39.700000 -90.200000 4.239834
40.000000 -90.200000 4.241721
40.300000 -90.200000 4.243143
40.600000 -90.200000 4.243980
40.900000 -90.200000 4.244545
41.200000 -90.200000 4.244650
41.500000 -90.200000 4.243847
41.800000 -90.200000 4.242734
42.100000 -90.200000 4.241890
42.400000 -90.200000 4.241044
42.700000 -90.200000 4.240915
43.000000 -90.200000 4.241575
43.300000 -90.200000 4.242830
43.600000 -90.200000 4.244189
43.900000 -90.200000 4.245227
44.200000 -90.200000 4.246082
44.500000 -90.200000 4.246919
44.800000 -90.200000 4.247591
45.100000 -90.200000 4.247649
45.400000 -90.200000 4.247355
45.700000 -90.200000 4.246749
46.000000 -90.200000 4.246218
46.300000 -90.200000 4.245754
47.500000 -90.200000 4.243267
47.800000 -90.200000 4.243337
29.500000 -89.900000 4.088504
29.800000 -89.900000 4.093787
30.100000 -89.900000 4.099056
30.400000 -89.900000 4.105803
30.700000 -89.900000 4.113234
31.000000 -89.900000 4.121890
31.300000 -89.900000 4.131018
31.600000 -89.900000 4.141257
31.900000 -89.900000 4.151793
32.200000 -89.900000 4.162076
32.500000 -89.900000 4.171798
32.800000 -89.900000 4.180866
33.100000 -89.900000 4.188211
33.400000 -89.900000 4.194015
33.700000 -89.900000 4.197844
34.000000 -89.900000 4.200238
34.300000 -89.900000 4.201377
34.600000 -89.900000 4.201746
34.900000 -89.900000 4.202043
35.200000 -89.900000 4.201953
35.500000 -89.900000 4.202252
35.800000 -89.900000 4.202856
36.100000 -89.900000 4.204307
36.400000 -89.900000 4.206576
36.700000 -89.900000 4.209053
37.000000 -89.900000 4.212212
37.300000 -89.900000 4.215926
37.600000 -89.900000 4.220057
37.900000 -89.900000 4.224979
38.200000 -89.900000 4.228675
38.500000 -89.900000 4.231116
38.800000 -89.900000 4.233465
39.100000 -89.900000 4.235250
39.400000 -89.900000 4.236469
39.700000 -89.900000 4.237819
40.000000 -89.900000 4.238735
40.300000 -89.900000 4.239523
40.600000 -89.900000 4.240117
40.900000 -89.900000 4.240408
41.200000 -89.900000 4.240433
41.500000 -89.900000 4.240189
41.800000 -89.900000 4.239435
42.100000 -89.900000 4.238912
42.400000 -89.900000 4.238542
42.700000 -89.900000 4.238795
43.000000 -89.900000 4.239818
43.300000 -89.900000 4.241406
43.600000 -89.900000 4.242818
43.900000 -89.900000 4.243620
44.200000 -89.900000 4.244254
44.500000 -89.900000 4.245045
44.800000 -89.900000 4.245672
45.100000 -89.900000 4.245458
45.400000 -89.900000 4.245115
45.700000 -89.900000 4.244397
46.000000 -89.900000 4.243652
46.300000 -89.900000 4.242766
47.800000 -89.900000 4.242811
30.100000 -89.600000 4.101745
30.400000 -89.600000 4.110093
30.700000 -89.600000 4.118224
31.000000 -89.600000 4.125738
31.300000 -89.600000 4.135809
31.600000 -89.600000 4.146782
31.900000 -89.600000 4.158197
32.200000 -89.600000 4.169383
32.500000 -89.600000 4.179728
32.800000 -89.600000 4.189116
33.100000 -89.600000 4.196988
33.400000 -89.600000 4.203057
33.700000 -89.600000 4.207026
34.000000 -89.600000 4.209303
34.300000 -89.600000 4.210336
34.600000 -89.600000 4.210447
34.900000 -89.600000 4.209819
35.200000 -89.600000 4.208870
35.500000 -89.600000 4.207919
35.800000 -89.600000 4.207534
36.100000 -89.600000 4.207461
36.400000 -89.600000 4.208322
36.700000 -89.600000 4.209510
37.000000 -89.600000 4.211626
37.300000 -89.600000 4.214433
37.600000 -89.600000 4.218024
37.900000 -89.600000 4.222484
38.200000 -89.600000 4.226030
38.500000 -89.600000 4.229123
38.800000 -89.600000 4.231832
39.100000 -89.600000 4.233641
39.400000 -89.600000 4.234924
39.700000 -89.600000 4.235812
40.000000 -89.600000 4.236239
40.300000 -89.600000 4.236321
40.600000 -89.600000 4.236375
40.900000 -89.600000 4.236481
41.200000 -89.600000 4.236782
41.500000 -89.600000 4.236964
41.800000 -89.600000 4.236642
42.100000 -89.600000 4.236425
42.400000 -89.600000 4.236815
42.700000 -89.600000 4.237389
43.000000 -89.600000 4.238630
43.300000 -89.600000 4.240332
43.600000 -89.600000 4.241642
43.900000 -89.600000 4.242249
44.200000 -89.600000 4.242510
44.500000 -89.600000 4.242854
44.800000 -89.600000 4.242773
45.100000 -89.600000 4.242591
45.400000 -89.600000 4.242067
45.700000 -89.600000 4.241703
46.000000 -89.600000 4.240985
46.300000 -89.600000 4.239419
47.800000 -89.600000 4.241189
30.400000 -89.300000 4.114318
30.700000 -89.300000 4.122670
31.000000 -89.300000 4.131036
31.300000 -89.300000 4.140544
31.600000 -89.300000 4.152061
31.900000 -89.300000 4.164044
32.200000 -89.300000 4.175573
32.500000 -89.300000 4.186861
32.800000 -89.300000 4.196618
33.100000 -89.300000 4.204810
33.400000 -89.300000 4.210894
33.700000 -89.300000 4.215236
34.000000 -89.300000 4.217308
34.300000 -89.300000 4.218034
34.600000 -89.300000 4.217524
34.900000 -89.300000 4.216204
35.200000 -89.300000 4.214612
35.500000 -89.300000 4.213371
35.800000 -89.300000 4.211868
36.100000 -89.300000 4.210730
36.400000 -89.300000 4.210480
36.700000 -89.300000 4.210840
37.000000 -89.300000 4.211719
37.300000 -89.300000 4.213846
37.600000 -89.300000 4.216684
37.900000 -89.300000 4.220606
38.200000 -89.300000 4.223985
38.500000 -89.300000 4.227456
38.800000 -89.300000 4.230592
39.100000 -89.300000 4.232718
39.400000 -89.300000 4.233843
39.700000 -89.300000 4.234370
40.000000 -89.300000 4.234462
40.300000 -89.300000 4.234164
40.600000 -89.300000 4.233781
40.900000 -89.300000 4.233825
41.200000 -89.300000 4.234182
41.500000 -89.300000 4.234307
41.800000 -89.300000 4.234605
42.100000 -89.300000 4.235115
42.400000 -89.300000 4.236002
42.700000 -89.300000 4.236652
43.000000 -89.300000 4.238142
43.300000 -89.300000 4.239653
43.600000 -89.300000 4.240858
43.900000 -89.300000 4.241157
44.200000 -89.300000 4.241021
44.500000 -89.300000 4.240717
44.800000 -89.300000 4.240180
45.100000 -89.300000 4.239749
45.400000 -89.300000 4.239152
45.700000 -89.300000 4.238820
46.000000 -89.300000 4.237602
46.300000 -89.300000 4.236799
46.600000 -89.300000 4.235844
47.500000 -89.300000 4.237640
47.800000 -89.300000 4.238223
30.400000 -89.000000 4.120473
30.700000 -89.000000 4.127483
31.000000 -89.000000 4.135602
31.300000 -89.000000 4.144676
31.600000 -89.000000 4.156787
31.900000 -89.000000 4.168919
32.200000 -89.000000 4.180971
32.500000 -89.000000 4.192461
32.800000 -89.000000 4.202923
33.100000 -89.000000 4.211327
33.400000 -89.000000 4.217448
33.700000 -89.000000 4.221665
34.000000 -89.000000 4.223685
34.300000 -89.000000 4.223930
34.600000 -89.000000 4.223084
34.900000 -89.000000 4.221161
35.200000 -89.000000 4.219264
35.500000 -89.000000 4.217804
35.800000 -89.000000 4.215940
36.100000 -89.000000 4.214198
36.400000 -89.000000 4.212718
36.700000 -89.000000 4.212203
37.000000 -89.000000 4.212406
37.300000 -89.000000 4.213786
37.600000 -89.000000 4.216027
37.900000 -89.000000 4.219466
38.200000 -89.000000 4.222689
38.500000 -89.000000 4.225987
38.800000 -89.000000 4.229411
39.100000 -89.000000 4.232015
39.400000 -89.000000 4.233664
39.700000 -89.000000 4.234370
40.000000 -89.000000 4.234248
40.300000 -89.000000 4.233829
40.600000 -89.000000 4.233314
40.900000 -89.000000 4.233020
41.200000 -89.000000 4.233325
41.500000 -89.000000 4.233176
41.800000 -89.000000 4.233452
42.100000 -89.000000 4.233970
42.400000 -89.000000 4.235323
42.700000 -89.000000 4.236564
43.000000 -89.000000 4.237795
43.300000 -89.000000 4.239048
43.600000 -89.000000 4.240049
43.900000 -89.000000 4.240293
44.200000 -89.000000 4.239812
44.500000 -89.000000 4.238829
44.800000 -89.000000 4.237683
45.100000 -89.000000 4.236758
45.400000 -89.000000 4.236337
45.700000 -89.000000 4.235981
46.000000 -89.000000 4.234989
46.300000 -89.000000 4.233873
46.600000 -89.000000 4.232905
46.900000 -89.000000 4.232694
30.700000 -88.700000 4.132544
31.000000 -88.700000 4.139692
31.300000 -88.700000 4.149357
31.600000 -88.700000 4.160455
31.900000 -88.700000 4.172604
32.200000 -88.700000 4.184891
32.500000 -88.700000 4.196641
32.800000 -88.700000 4.207245
33.100000 -88.700000 4.215884
33.400000 -88.700000 4.222439
33.700000 -88.700000 4.226380
34.000000 -88.700000 4.228309
34.300000 -88.700000 4.228353
34.600000 -88.700000 4.227382
34.900000 -88.700000 4.225340
35.200000 -88.700000 4.223670
35.500000 -88.700000 4.221144
35.800000 -88.700000 4.218799
36.100000 -88.700000 4.216582
36.400000 -88.700000 4.214998
36.700000 -88.700000 4.213724
37.000000 -88.700000 4.213585
37.300000 -88.700000 4.214235
37.600000 -88.700000 4.215930
37.900000 -88.700000 4.218786
38.200000 -88.700000 4.222092
38.500000 -88.700000 4.225219
38.800000 -88.700000 4.229013
39.100000 -88.700000 4.232104
39.400000 -88.700000 4.234383
39.700000 -88.700000 4.235325
40.000000 -88.700000 4.235426
40.300000 -88.700000 4.235188
40.600000 -88.700000 4.234839
40.900000 -88.700000 4.234316
41.200000 -88.700000 4.234029
41.500000 -88.700000 4.233273
41.800000 -88.700000 4.233088
42.100000 -88.700000 4.233782
42.400000 -88.700000 4.234969
42.700000 -88.700000 4.236371
43.000000 -88.700000 4.237653
43.300000 -88.700000 4.238532
43.600000 -88.700000 4.240548
43.900000 -88.700000 4.240832
44.200000 -88.700000 4.240549
44.500000 -88.700000 4.238857
44.800000 -88.700000 4.236877
45.100000 -88.700000 4.234721
45.400000 -88.700000 4.233597
45.700000 -88.700000 4.232858
46.000000 -88.700000 4.232269
46.300000 -88.700000 4.231248
46.900000 -88.700000 4.229506
30.700000 -88.400000 4.136903
31.000000 -88.400000 4.143687
31.300000 -88.400000 4.152269
31.600000 -88.400000 4.163174
31.900000 -88.400000 4.175267
32.200000 -88.400000 4.187358
32.500000 -88.400000 4.199189
32.800000 -88.400000 4.209696
33.100000 -88.400000 4.218402
33.400000 -88.400000 4.224978
33.700000 -88.400000 4.229420
34.000000 -88.400000 4.231439
34.300000 -88.400000 4.231701
34.600000 -88.400000 4.230637
34.900000 -88.400000 4.228748
35.200000 -88.400000 4.226430
35.500000 -88.400000 4.223967
35.800000 -88.400000 4.220858
36.100000 -88.400000 4.218480
36.400000 -88.400000 4.216436
36.700000 -88.400000 4.215389
37.000000 -88.400000 4.214672
37.300000 -88.400000 4.215247
37.600000 -88.400000 4.216371
37.900000 -88.400000 4.218786
38.200000 -88.400000 4.221820
38.500000 -88.400000 4.225099
38.800000 -88.400000 4.229002
39.100000 -88.400000 4.232581
39.400000 -88.400000 4.235436
39.700000 -88.400000 4.236965
40.000000 -88.400000 4.237590
40.300000 -88.400000 4.237692
40.600000 -88.400000 4.237308
40.900000 -88.400000 4.236694
41.200000 -88.400000 4.236046
41.500000 -88.400000 4.235063
41.800000 -88.400000 4.233872
42.100000 -88.400000 4.233802
42.400000 -88.400000 4.235171
42.700000 -88.400000 4.236637
43.000000 -88.400000 4.237751
43.300000 -88.400000 4.239693
43.600000 -88.400000 4.240684
43.900000 -88.400000 4.241411
44.200000 -88.400000 4.241535
44.500000 -88.400000 4.240287
44.800000 -88.400000 4.237470
45.100000 -88.400000 4.234241
45.400000 -88.400000 4.232323
45.700000 -88.400000 4.230340
46.000000 -88.400000 4.229767
46.300000 -88.400000 4.228899
46.600000 -88.400000 4.228134
30.700000 -88.100000 4.141058
31.000000 -88.100000 4.147934
31.300000 -88.100000 4.154904
31.600000 -88.100000 4.165570
31.900000 -88.100000 4.177185
32.200000 -88.100000 4.189003
32.500000 -88.100000 4.200382
32.800000 -88.100000 4.210679
33.100000 -88.100000 4.218968
33.400000 -88.100000 4.225520
33.700000 -88.100000 4.230312
34.000000 -88.100000 4.232816
34.300000 -88.100000 4.233411
34.600000 -88.100000 4.232912
34.900000 -88.100000 4.231498
35.200000 -88.100000 4.228766
35.500000 -88.100000 4.225889
35.800000 -88.100000 4.222356
36.100000 -88.100000 4.219286
36.400000 -88.100000 4.217458
36.700000 -88.100000 4.216442
37.000000 -88.100000 4.215762
37.300000 -88.100000 4.215732
37.600000 -88.100000 4.216501
37.900000 -88.100000 4.218800
38.200000 -88.100000 4.221900
38.500000 -88.100000 4.225270
38.800000 -88.100000 4.229539
39.100000 -88.100000 4.233579
39.400000 -88.100000 4.236990
39.700000 -88.100000 4.239071
40.000000 -88.100000 4.240271
40.300000 -88.100000 4.240641
40.600000 -88.100000 4.240348
40.900000 -88.100000 4.239712
41.200000 -88.100000 4.238370
41.500000 -88.100000 4.237448
41.800000 -88.100000 4.236123
42.100000 -88.100000 4.235138
42.400000 -88.100000 4.235653
43.300000 -88.100000 4.240345
43.900000 -88.100000 4.242940
44.200000 -88.100000 4.242753
44.500000 -88.100000 4.241834
44.800000 -88.100000 4.238363
45.100000 -88.100000 4.234643
45.400000 -88.100000 4.230927
45.700000 -88.100000 4.229402
46.000000 -88.100000 4.227108
46.300000 -88.100000 4.226921
30.700000 -87.800000 4.145350
31.000000 -87.800000 4.150685
31.300000 -87.800000 4.157452
31.600000 -87.800000 4.167382
31.900000 -87.800000 4.178528
32.200000 -87.800000 4.189704
32.500000 -87.800000 4.200449
32.800000 -87.800000 4.210234
33.100000 -87.800000 4.218318
33.400000 -87.800000 4.224857
33.700000 -87.800000 4.229584
34.000000 -87.800000 4.232882
34.300000 -87.800000 4.234261
34.600000 -87.800000 4.234751
34.900000 -87.800000 4.233510
35.200000 -87.800000 4.230985
35.500000 -87.800000 4.227306
35.800000 -87.800000 4.223968
36.100000 -87.800000 4.220645
36.400000 -87.800000 4.218281
36.700000 -87.800000 4.216311
37.000000 -87.800000 4.215723
37.300000 -87.800000 4.215908
37.600000 -87.800000 4.216784
37.900000 -87.800000 4.218758
38.200000 -87.800000 4.221661
38.500000 -87.800000 4.225095
38.800000 -87.800000 4.229754
39.100000 -87.800000 4.234394
39.400000 -87.800000 4.238200
39.700000 -87.800000 4.241123
40.000000 -87.800000 4.243362
40.300000 -87.800000 4.243765
40.600000 -87.800000 4.243055
40.900000 -87.800000 4.242303
41.200000 -87.800000 4.240840
41.500000 -87.800000 4.239833
41.800000 -87.800000 4.238264
42.100000 -87.800000 4.236698
44.200000 -87.800000 4.243216
44.500000 -87.800000 4.242361
44.800000 -87.800000 4.241039
45.100000 -87.800000 4.235778
45.400000 -87.800000 4.230740
45.700000 -87.800000 4.228986
46.000000 -87.800000 4.226114
46.300000 -87.800000 4.225262
30.700000 -87.500000 4.147643
31.000000 -87.500000 4.153394
31.300000 -87.500000 4.159967
31.600000 -87.500000 4.169583
31.900000 -87.500000 4.179944
32.200000 -87.500000 4.190135
32.500000 -87.500000 4.200141
32.800000 -87.500000 4.209187
33.100000 -87.500000 4.216718
33.400000 -87.500000 4.223325
33.700000 -87.500000 4.228154
34.000000 -87.500000 4.231747
34.300000 -87.500000 4.234132
34.600000 -87.500000 4.235039
34.900000 -87.500000 4.234289
35.200000 -87.500000 4.231950
35.500000 -87.500000 4.228345
35.800000 -87.500000 4.224305
36.100000 -87.500000 4.220949
36.400000 -87.500000 4.218006
36.700000 -87.500000 4.215909
37.000000 -87.500000 4.214998
37.300000 -87.500000 4.215407
37.600000 -87.500000 4.216399
37.900000 -87.500000 4.218461
38.200000 -87.500000 4.221333
38.500000 -87.500000 4.224967
38.800000 -87.500000 4.229796
39.100000 -87.500000 4.234822
39.400000 -87.500000 4.239164
39.700000 -87.500000 4.242624
40.000000 -87.500000 4.245661
40.300000 -87.500000 4.246484
40.600000 -87.500000 4.245690
40.900000 -87.500000 4.244560
41.200000 -87.500000 4.242866
41.500000 -87.500000 4.241839
42.100000 -87.500000 4.239306
43.900000 -87.500000 4.242584
44.200000 -87.500000 4.241827
44.500000 -87.500000 4.240816
44.800000 -87.500000 4.241037
45.100000 -87.500000 4.237541
45.400000 -87.500000 4.232084
45.700000 -87.500000 4.228361
46.000000 -87.500000 4.226561
46.300000 -87.500000 4.222936
30.700000 -87.200000 4.150212
31.000000 -87.200000 4.155558
31.300000 -87.200000 4.162426
31.600000 -87.200000 4.171715
31.900000 -87.200000 4.181380
32.200000 -87.200000 4.190692
32.500000 -87.200000 4.199528
32.800000 -87.200000 4.207779
33.100000 -87.200000 4.215223
33.400000 -87.200000 4.221206
33.700000 -87.200000 4.226032
34.000000 -87.200000 4.229329
34.300000 -87.200000 4.232080
34.600000 -87.200000 4.233453
34.900000 -87.200000 4.233065
35.200000 -87.200000 4.230572
35.500000 -87.200000 4.227357
35.800000 -87.200000 4.223632
36.100000 -87.200000 4.220059
36.400000 -87.200000 4.216619
36.700000 -87.200000 4.214128
37.000000 -87.200000 4.213422
37.300000 -87.200000 4.213962
37.600000 -87.200000 4.215467
37.900000 -87.200000 4.217696
38.200000 -87.200000 4.220973
38.500000 -87.200000 4.224675
38.800000 -87.200000 4.229744
39.100000 -87.200000 4.235211
39.400000 -87.200000 4.240036
39.700000 -87.200000 4.243797
40.000000 -87.200000 4.247205
40.300000 -87.200000 4.248071
40.600000 -87.200000 4.247241
40.900000 -87.200000 4.246209
41.200000 -87.200000 4.244878
41.500000 -87.200000 4.243568
44.200000 -87.200000 4.238924
44.500000 -87.200000 4.239517
45.100000 -87.200000 4.237845
45.700000 -87.200000 4.228735
46.000000 -87.200000 4.226298
46.300000 -87.200000 4.222974
30.700000 -86.900000 4.153557
31.000000 -86.900000 4.158259
31.300000 -86.900000 4.165466
31.600000 -86.900000 4.173807
31.900000 -86.900000 4.182752
32.200000 -86.900000 4.191271
32.500000 -86.900000 4.199264
32.800000 -86.900000 4.206454
33.100000 -86.900000 4.212788
33.400000 -86.900000 4.218130
33.700000 -86.900000 4.222506
34.000000 -86.900000 4.226031
34.300000 -86.900000 4.228182
34.600000 -86.900000 4.229722
34.900000 -86.900000 4.229541
35.200000 -86.900000 4.227838
35.500000 -86.900000 4.224461
35.800000 -86.900000 4.220974
36.100000 -86.900000 4.217267
36.400000 -86.900000 4.214371
36.700000 -86.900000 4.212335
37.000000 -86.900000 4.211719
37.300000 -86.900000 4.212020
37.600000 -86.900000 4.213403
37.900000 -86.900000 4.216666
38.200000 -86.900000 4.220652
38.500000 -86.900000 4.225036
38.800000 -86.900000 4.230356
39.100000 -86.900000 4.235960
39.400000 -86.900000 4.241039
39.700000 -86.900000 4.244729
40.000000 -86.900000 4.247777
40.300000 -86.900000 4.248604
40.600000 -86.900000 4.247784
40.900000 -86.900000 4.246815
41.200000 -86.900000 4.246062
41.500000 -86.900000 4.244644
41.800000 -86.900000 4.243590
43.900000 -86.900000 4.233447
44.200000 -86.900000 4.235450
44.500000 -86.900000 4.238049
45.400000 -86.900000 4.232665
45.700000 -86.900000 4.227414
46.000000 -86.900000 4.225472
46.300000 -86.900000 4.222487
30.400000 -86.600000 4.152900
30.700000 -86.600000 4.157823
31.000000 -86.600000 4.162116
31.300000 -86.600000 4.167963
31.600000 -86.600000 4.176372
31.900000 -86.600000 4.184309
32.200000 -86.600000 4.191723
32.500000 -86.600000 4.198635
32.800000 -86.600000 4.204753
33.100000 -86.600000 4.209764
33.400000 -86.600000 4.214337
33.700000 -86.600000 4.217793
34.000000 -86.600000 4.220492
34.300000 -86.600000 4.222406
34.600000 -86.600000 4.223858
34.900000 -86.600000 4.223794
35.200000 -86.600000 4.222610
35.500000 -86.600000 4.219980
35.800000 -86.600000 4.216333
36.100000 -86.600000 4.213203
36.400000 -86.600000 4.210979
36.700000 -86.600000 4.209593
37.000000 -86.600000 4.209422
37.300000 -86.600000 4.210101
37.600000 -86.600000 4.211647
37.900000 -86.600000 4.215665
38.200000 -86.600000 4.220559
38.500000 -86.600000 4.225504
38.800000 -86.600000 4.231407
39.100000 -86.600000 4.237199
39.400000 -86.600000 4.242497
39.700000 -86.600000 4.246077
40.000000 -86.600000 4.248247
40.300000 -86.600000 4.248522
40.600000 -86.600000 4.248006
40.900000 -86.600000 4.246995
41.200000 -86.600000 4.246644
41.500000 -86.600000 4.245693
41.800000 -86.600000 4.244742
43.300000 -86.600000 4.225111
43.900000 -86.600000 4.229875
44.500000 -86.600000 4.235430
45.400000 -86.600000 4.229710
45.700000 -86.600000 4.226214
46.000000 -86.600000 4.223731
46.300000 -86.600000 4.222130
30.400000 -86.300000 4.156487
30.700000 -86.300000 4.161037
31.000000 -86.300000 4.165780
31.300000 -86.300000 4.171819
31.600000 -86.300000 4.179042
31.900000 -86.300000 4.185574
32.200000 -86.300000 4.191792
32.500000 -86.300000 4.197399
32.800000 -86.300000 4.202234
33.100000 -86.300000 4.206199
33.400000 -86.300000 4.209397
33.700000 -86.300000 4.212285
34.000000 -86.300000 4.214288
34.300000 -86.300000 4.216341
34.600000 -86.300000 4.216950
34.900000 -86.300000 4.217217
35.200000 -86.300000 4.215798
35.500000 -86.300000 4.213737
35.800000 -86.300000 4.210909
36.100000 -86.300000 4.208705
36.400000 -86.300000 4.206979
36.700000 -86.300000 4.206483
37.000000 -86.300000 4.206914
37.300000 -86.300000 4.207564
37.600000 -86.300000 4.209604
37.900000 -86.300000 4.214766
38.200000 -86.300000 4.220762
38.500000 -86.300000 4.226209
38.800000 -86.300000 4.232837
39.100000 -86.300000 4.238995
39.400000 -86.300000 4.244365
39.700000 -86.300000 4.247841
40.000000 -86.300000 4.249465
40.300000 -86.300000 4.249055
40.600000 -86.300000 4.248359
40.900000 -86.300000 4.247572
41.200000 -86.300000 4.246923
41.500000 -86.300000 4.246116
41.800000 -86.300000 4.245380
42.100000 -86.300000 4.243763
42.400000 -86.300000 4.240583
43.000000 -86.300000 4.225581
43.300000 -86.300000 4.219806
43.600000 -86.300000 4.222547
43.900000 -86.300000 4.225615
44.200000 -86.300000 4.227620
44.500000 -86.300000 4.231205
44.800000 -86.300000 4.231609
45.100000 -86.300000 4.229202
45.400000 -86.300000 4.226052
45.700000 -86.300000 4.224657
46.000000 -86.300000 4.222988
46.300000 -86.300000 4.220886
30.400000 -86.000000 4.160044
30.700000 -86.000000 4.164419
31.000000 -86.000000 4.169195
31.300000 -86.000000 4.175778
31.600000 -86.000000 4.181544
31.900000 -86.000000 4.186495
32.200000 -86.000000 4.190718
32.500000 -86.000000 4.195184
32.800000 -86.000000 4.199302
33.100000 -86.000000 4.202601
33.400000 -86.000000 4.204819
33.700000 -86.000000 4.206643
34.000000 -86.000000 4.208030
34.300000 -86.000000 4.209021
34.600000 -86.000000 4.209584
34.900000 -86.000000 4.209384
35.200000 -86.000000 4.208654
35.500000 -86.000000 4.207107
35.800000 -86.000000 4.205707
36.100000 -86.000000 4.204425
36.400000 -86.000000 4.203398
36.700000 -86.000000 4.203250
37.000000 -86.000000 4.204180
37.300000 -86.000000 4.205901
37.600000 -86.000000 4.208418
37.900000 -86.000000 4.214143
38.200000 -86.000000 4.220818
38.500000 -86.000000 4.227263
38.800000 -86.000000 4.234427
39.100000 -86.000000 4.241151
39.400000 -86.000000 4.246353
39.700000 -86.000000 4.249572
40.000000 -86.000000 4.251135
40.300000 -86.000000 4.250452
40.600000 -86.000000 4.249123
40.900000 -86.000000 4.248340
41.200000 -86.000000 4.247547
41.500000 -86.000000 4.246406
41.800000 -86.000000 4.245415
42.100000 -86.000000 4.243401
42.400000 -86.000000 4.239412
42.700000 -86.000000 4.232489
43.000000 -86.000000 4.225230
43.300000 -86.000000 4.219823
43.600000 -86.000000 4.217100
43.900000 -86.000000 4.219882
44.200000 -86.000000 4.221941
44.500000 -86.000000 4.224599
44.800000 -86.000000 4.226664
45.100000 -86.000000 4.225176
45.400000 -86.000000 4.223164
45.700000 -86.000000 4.222523
46.000000 -86.000000 4.221783
46.300000 -86.000000 4.218084
30.100000 -85.700000 4.159390
30.400000 -85.700000 4.163519
30.700000 -85.700000 4.167284
31.000000 -85.700000 4.172370
31.300000 -85.700000 4.178587
31.600000 -85.700000 4.183470
31.900000 -85.700000 4.186767
32.200000 -85.700000 4.189691
32.500000 -85.700000 4.192936
32.800000 -85.700000 4.196205
33.100000 -85.700000 4.198618
33.400000 -85.700000 4.200386
33.700000 -85.700000 4.201322
34.000000 -85.700000 4.201934
34.300000 -85.700000 4.202105
34.600000 -85.700000 4.202067
34.900000 -85.700000 4.201359
35.200000 -85.700000 4.201241
35.500000 -85.700000 4.200825
35.800000 -85.700000 4.200500
36.100000 -85.700000 4.200448
36.400000 -85.700000 4.200526
36.700000 -85.700000 4.200948
37.000000 -85.700000 4.202182
37.300000 -85.700000 4.204580
37.600000 -85.700000 4.207985
37.900000 -85.700000 4.214411
38.200000 -85.700000 4.221804
38.500000 -85.700000 4.228948
38.800000 -85.700000 4.236282
39.100000 -85.700000 4.243135
39.400000 -85.700000 4.248275
39.700000 -85.700000 4.251394
40.000000 -85.700000 4.252727
40.300000 -85.700000 4.252054
40.600000 -85.700000 4.250614
40.900000 -85.700000 4.249649
41.200000 -85.700000 4.248774
41.500000 -85.700000 4.247387
41.800000 -85.700000 4.245386
42.100000 -85.700000 4.242747
42.400000 -85.700000 4.238181
42.700000 -85.700000 4.231505
43.000000 -85.700000 4.224455
43.300000 -85.700000 4.218472
43.600000 -85.700000 4.215252
43.900000 -85.700000 4.215404
44.200000 -85.700000 4.217379
44.500000 -85.700000 4.219265
44.800000 -85.700000 4.221013
45.100000 -85.700000 4.222179
45.400000 -85.700000 4.221656
45.700000 -85.700000 4.220869
46.000000 -85.700000 4.219263
46.300000 -85.700000 4.215137
30.100000 -85.400000 4.163764
30.400000 -85.400000 4.167373
30.700000 -85.400000 4.170592
31.000000 -85.400000 4.175642
31.300000 -85.400000 4.180363
31.600000 -85.400000 4.183588
31.900000 -85.400000 4.186046
32.200000 -85.400000 4.188482
32.500000 -85.400000 4.190557
32.800000 -85.400000 4.192986
33.100000 -85.400000 4.195253
33.400000 -85.400000 4.196504
33.700000 -85.400000 4.196667
34.000000 -85.400000 4.196338
34.300000 -85.400000 4.195733
34.600000 -85.400000 4.194981
34.900000 -85.400000 4.194738
35.200000 -85.400000 4.194913
35.500000 -85.400000 4.195623
35.800000 -85.400000 4.196170
36.100000 -85.400000 4.197148
36.400000 -85.400000 4.197680
36.700000 -85.400000 4.198769
37.000000 -85.400000 4.200946
37.300000 -85.400000 4.203993
37.600000 -85.400000 4.208350
37.900000 -85.400000 4.215056
38.200000 -85.400000 4.222861
38.500000 -85.400000 4.230372
38.800000 -85.400000 4.238034
39.100000 -85.400000 4.244719
39.400000 -85.400000 4.249538
39.700000 -85.400000 4.252717
40.000000 -85.400000 4.254031
40.300000 -85.400000 4.253511
40.600000 -85.400000 4.252026
40.900000 -85.400000 4.250778
41.200000 -85.400000 4.249671
41.500000 -85.400000 4.248244
41.800000 -85.400000 4.245438
42.100000 -85.400000 4.241982
42.400000 -85.400000 4.236923
42.700000 -85.400000 4.230137
43.000000 -85.400000 4.223301
43.300000 -85.400000 4.217399
43.600000 -85.400000 4.213669
43.900000 -85.400000 4.210898
44.200000 -85.400000 4.212934
44.500000 -85.400000 4.215147
44.800000 -85.400000 4.218484
45.100000 -85.400000 4.220216
45.400000 -85.400000 4.220349
45.700000 -85.400000 4.219436
46.000000 -85.400000 4.216384
46.300000 -85.400000 4.212940
30.100000 -85.100000 4.165773
30.400000 -85.100000 4.169448
30.700000 -85.100000 4.172445
31.000000 -85.100000 4.177459
31.300000 -85.100000 4.180992
31.600000 -85.100000 4.183333
31.900000 -85.100000 4.185246
32.200000 -85.100000 4.186708
32.500000 -85.100000 4.188638
32.800000 -85.100000 4.190421
33.100000 -85.100000 4.191929
33.400000 -85.100000 4.192755
33.700000 -85.100000 4.192604
34.000000 -85.100000 4.191901
34.300000 -85.100000 4.190840
34.600000 -85.100000 4.189881
34.900000 -85.100000 4.189288
35.200000 -85.100000 4.189761
35.500000 -85.100000 4.190417
35.800000 -85.100000 4.191468
36.100000 -85.100000 4.193300
36.400000 -85.100000 4.195290
36.700000 -85.100000 4.197565
37.000000 -85.100000 4.200154
37.300000 -85.100000 4.203804
37.600000 -85.100000 4.208471
37.900000 -85.100000 4.215839
38.200000 -85.100000 4.223566
38.500000 -85.100000 4.230579
38.800000 -85.100000 4.238254
39.100000 -85.100000 4.245002
39.400000 -85.100000 4.249284
39.700000 -85.100000 4.252750
40.000000 -85.100000 4.254499
40.300000 -85.100000 4.253918
40.600000 -85.100000 4.252780
40.900000 -85.100000 4.251791
41.200000 -85.100000 4.250230
41.500000 -85.100000 4.248491
41.800000 -85.100000 4.245294
42.100000 -85.100000 4.240961
42.400000 -85.100000 4.235342
42.700000 -85.100000 4.228593
43.000000 -85.100000 4.221830
43.300000 -85.100000 4.216084
43.600000 -85.100000 4.211649
43.900000 -85.100000 4.209854
44.200000 -85.100000 4.210665
44.500000 -85.100000 4.213453
44.800000 -85.100000 4.216877
45.100000 -85.100000 4.219018
45.400000 -85.100000 4.218661
45.700000 -85.100000 4.216843
46.000000 -85.100000 4.213013
46.300000 -85.100000 4.209866
30.100000 -84.800000 4.165845
30.400000 -84.800000 4.170280
30.700000 -84.800000 4.173893
31.000000 -84.800000 4.177605
31.300000 -84.800000 4.180305
31.600000 -84.800000 4.182207
31.900000 -84.800000 4.183445
32.200000 -84.800000 4.184632
32.500000 -84.800000 4.186654
32.800000 -84.800000 4.188505
33.100000 -84.800000 4.189832
33.400000 -84.800000 4.190211
33.700000 -84.800000 4.190063
34.000000 -84.800000 4.188839
34.300000 -84.800000 4.187662
34.600000 -84.800000 4.186496
34.900000 -84.800000 4.185660
35.200000 -84.800000 4.185743
35.500000 -84.800000 4.186161
35.800000 -84.800000 4.187078
36.100000 -84.800000 4.189085
36.400000 -84.800000 4.191996
36.700000 -84.800000 4.195588
37.000000 -84.800000 4.199239
37.300000 -84.800000 4.203545
37.600000 -84.800000 4.208709
37.900000 -84.800000 4.215783
38.200000 -84.800000 4.223022
38.500000 -84.800000 4.229699
38.800000 -84.800000 4.236804
39.100000 -84.800000 4.243258
39.400000 -84.800000 4.247519
39.700000 -84.800000 4.251101
40.000000 -84.800000 4.253369
40.300000 -84.800000 4.253506
40.600000 -84.800000 4.252740
40.900000 -84.800000 4.251994
41.200000 -84.800000 4.249917
41.500000 -84.800000 4.247665
41.800000 -84.800000 4.243987
42.100000 -84.800000 4.239295
42.400000 -84.800000 4.233496
42.700000 -84.800000 4.226631
43.000000 -84.800000 4.219502
43.300000 -84.800000 4.214548
43.600000 -84.800000 4.211053
43.900000 -84.800000 4.209857
44.200000 -84.800000 4.210498
44.500000 -84.800000 4.212905
44.800000 -84.800000 4.215387
45.100000 -84.800000 4.217261
45.400000 -84.800000 4.216490
45.700000 -84.800000 4.213107
46.000000 -84.800000 4.210944
46.300000 -84.800000 4.208276
30.100000 -84.500000 4.166965
30.400000 -84.500000 4.170279
30.700000 -84.500000 4.173212
31.000000 -84.500000 4.176417
31.300000 -84.500000 4.179039
31.600000 -84.500000 4.179961
31.900000 -84.500000 4.180954
32.200000 -84.500000 4.182355
32.500000 -84.500000 4.184077
32.800000 -84.500000 4.186587
33.100000 -84.500000 4.188175
33.400000 -84.500000 4.188551
33.700000 -84.500000 4.188072
34.000000 -84.500000 4.187062
34.300000 -84.500000 4.185573
34.600000 -84.500000 4.184118
34.900000 -84.500000 4.183180
35.200000 -84.500000 4.182248
35.500000 -84.500000 4.181909
35.800000 -84.500000 4.182425
36.100000 -84.500000 4.184683
36.400000 -84.500000 4.188664
36.700000 -84.500000 4.193204
37.000000 -84.500000 4.197825
37.300000 -84.500000 4.202733
37.600000 -84.500000 4.208372
37.900000 -84.500000 4.214795
38.200000 -84.500000 4.221258
38.500000 -84.500000 4.226858
38.800000 -84.500000 4.233057
39.100000 -84.500000 4.238900
39.400000 -84.500000 4.243208
39.700000 -84.500000 4.247089
40.000000 -84.500000 4.250126
40.300000 -84.500000 4.251289
40.600000 -84.500000 4.251184
40.900000 -84.500000 4.250738
41.200000 -84.500000 4.248889
41.500000 -84.500000 4.245999
41.800000 -84.500000 4.241900
42.100000 -84.500000 4.237175
42.400000 -84.500000 4.231661
42.700000 -84.500000 4.225243
43.000000 -84.500000 4.218750
43.300000 -84.500000 4.214018
43.600000 -84.500000 4.211496
43.900000 -84.500000 4.211186
44.200000 -84.500000 4.211656
44.500000 -84.500000 4.213389
44.800000 -84.500000 4.214974
45.100000 -84.500000 4.215940
45.400000 -84.500000 4.214501
45.700000 -84.500000 4.212036
46.000000 -84.500000 4.209929
46.300000 -84.500000 4.208165
46.600000 -84.500000 4.205632
30.100000 -84.200000 4.165576
30.400000 -84.200000 4.168805
30.700000 -84.200000 4.171671
31.000000 -84.200000 4.173691
31.300000 -84.200000 4.175300
31.600000 -84.200000 4.176797
31.900000 -84.200000 4.177667
32.200000 -84.200000 4.179574
32.500000 -84.200000 4.182253
32.800000 -84.200000 4.185057
33.100000 -84.200000 4.186668
33.400000 -84.200000 4.187106
33.700000 -84.200000 4.186600
34.000000 -84.200000 4.185556
34.300000 -84.200000 4.183995
34.600000 -84.200000 4.182076
34.900000 -84.200000 4.180712
35.200000 -84.200000 4.179223
35.500000 -84.200000 4.178197
35.800000 -84.200000 4.178203
36.100000 -84.200000 4.180190
36.400000 -84.200000 4.184022
36.700000 -84.200000 4.189687
37.000000 -84.200000 4.195992
37.300000 -84.200000 4.202056
37.600000 -84.200000 4.207640
37.900000 -84.200000 4.213030
38.200000 -84.200000 4.218053
38.500000 -84.200000 4.222347
38.800000 -84.200000 4.227272
39.100000 -84.200000 4.232184
39.400000 -84.200000 4.236985
39.700000 -84.200000 4.241093
40.000000 -84.200000 4.244800
40.300000 -84.200000 4.247256
40.600000 -84.200000 4.248448
40.900000 -84.200000 4.248071
41.200000 -84.200000 4.246488
41.500000 -84.200000 4.243646
41.800000 -84.200000 4.239507
42.100000 -84.200000 4.235099
42.400000 -84.200000 4.229759
42.700000 -84.200000 4.223755
43.000000 -84.200000 4.218220
43.300000 -84.200000 4.214700
43.600000 -84.200000 4.213024
43.900000 -84.200000 4.212629
44.200000 -84.200000 4.212515
44.500000 -84.200000 4.213308
44.800000 -84.200000 4.214914
45.100000 -84.200000 4.215204
45.400000 -84.200000 4.213521
45.700000 -84.200000 4.211868
46.000000 -84.200000 4.210379
46.300000 -84.200000 4.208738
46.600000 -84.200000 4.206261
29.800000 -83.900000 4.160113
30.100000 -83.900000 4.162737
30.400000 -83.900000 4.165780
30.700000 -83.900000 4.167888
31.000000 -83.900000 4.169510
31.300000 -83.900000 4.170839
31.600000 -83.900000 4.172445
31.900000 -83.900000 4.174387
32.200000 -83.900000 4.176361
32.500000 -83.900000 4.179684
32.800000 -83.900000 4.182844
33.100000 -83.900000 4.185119
33.400000 -83.900000 4.185479
33.700000 -83.900000 4.185603
34.000000 -83.900000 4.184312
34.300000 -83.900000 4.182695
34.600000 -83.900000 4.180579
34.900000 -83.900000 4.178678
35.200000 -83.900000 4.176848
35.500000 -83.900000 4.175216
35.800000 -83.900000 4.174606
36.100000 -83.900000 4.175894
36.400000 -83.900000 4.179654
36.700000 -83.900000 4.185506
37.000000 -83.900000 4.192524
37.300000 -83.900000 4.199589
37.600000 -83.900000 4.205600
37.900000 -83.900000 4.210652
38.200000 -83.900000 4.214130
38.500000 -83.900000 4.217058
38.800000 -83.900000 4.220706
39.100000 -83.900000 4.224884
39.400000 -83.900000 4.229920
39.700000 -83.900000 4.234569
40.000000 -83.900000 4.239236
40.300000 -83.900000 4.242547
40.600000 -83.900000 4.244882
40.900000 -83.900000 4.244912
41.200000 -83.900000 4.243711
41.500000 -83.900000 4.241095
41.800000 -83.900000 4.237137
42.100000 -83.900000 4.232828
42.400000 -83.900000 4.228092
42.700000 -83.900000 4.222862
43.000000 -83.900000 4.218388
43.300000 -83.900000 4.215425
43.600000 -83.900000 4.213785
43.900000 -83.900000 4.213276
44.200000 -83.900000 4.213379
44.500000 -83.900000 4.213831
44.800000 -83.900000 4.214835
45.100000 -83.900000 4.214712
45.400000 -83.900000 4.213276
46.000000 -83.900000 4.210771
46.300000 -83.900000 4.209368
46.600000 -83.900000 4.206784
29.500000 -83.600000 4.155702
29.800000 -83.600000 4.157161
30.100000 -83.600000 4.159646
30.400000 -83.600000 4.161572
30.700000 -83.600000 4.163460
31.000000 -83.600000 4.164770
31.300000 -83.600000 4.165987
31.600000 -83.600000 4.167129
31.900000 -83.600000 4.170058
32.200000 -83.600000 4.173392
32.500000 -83.600000 4.176679
32.800000 -83.600000 4.180127
33.100000 -83.600000 4.182051
33.400000 -83.600000 4.183133
33.700000 -83.600000 4.184198
34.000000 -83.600000 4.183897
34.300000 -83.600000 4.182383
34.600000 -83.600000 4.180341
34.900000 -83.600000 4.177895
35.200000 -83.600000 4.175231
35.500000 -83.600000 4.173541
35.800000 -83.600000 4.172631
36.100000 -83.600000 4.173386
