47.500000 -112.700000 4.060865
47.800000 -112.700000 4.073271
48.100000 -112.700000 4.083800
48.400000 -112.700000 4.089738
48.700000 -112.700000 4.094289
32.500000 -112.400000 3.917800
32.800000 -112.400000 3.913869
33.100000 -112.400000 3.909398
33.400000 -112.400000 3.903929
33.700000 -112.400000 3.898488
34.000000 -112.400000 3.893367
34.300000 -112.400000 3.888968
34.600000 -112.400000 3.885953
34.900000 -112.400000 3.884541
35.200000 -112.400000 3.885184
35.500000 -112.400000 3.887755
35.800000 -112.400000 3.892335
36.100000 -112.400000 3.897224
36.400000 -112.400000 3.901529
36.700000 -112.400000 3.904836
37.000000 -112.400000 3.905823
37.300000 -112.400000 3.904588
37.600000 -112.400000 3.901992
37.900000 -112.400000 3.897773
38.200000 -112.400000 3.893933
38.500000 -112.400000 3.890891
38.800000 -112.400000 3.891077
39.100000 -112.400000 3.892994
39.400000 -112.400000 3.898833
39.700000 -112.400000 3.906359
40.000000 -112.400000 3.915880
40.300000 -112.400000 3.926885
40.600000 -112.400000 3.938170
40.900000 -112.400000 3.948027
41.200000 -112.400000 3.954558
41.500000 -112.400000 3.956203
41.800000 -112.400000 3.951978
42.100000 -112.400000 3.941087
42.400000 -112.400000 3.928109
42.700000 -112.400000 3.912902
43.000000 -112.400000 3.897013
43.300000 -112.400000 3.884557
43.600000 -112.400000 3.876258
43.900000 -112.400000 3.874552
44.200000 -112.400000 3.879886
44.500000 -112.400000 3.892189
44.800000 -112.400000 3.909426
45.100000 -112.400000 3.929230
45.400000 -112.400000 3.952099
45.700000 -112.400000 3.971250
46.000000 -112.400000 3.986693
46.300000 -112.400000 4.003270
46.600000 -112.400000 4.019378
46.900000 -112.400000 4.034778
47.200000 -112.400000 4.049390
47.500000 -112.400000 4.062619
47.800000 -112.400000 4.074489
48.100000 -112.400000 4.084561
48.400000 -112.400000 4.090187
48.700000 -112.400000 4.094618
32.200000 -112.100000 3.912096
32.500000 -112.100000 3.909093
32.800000 -112.100000 3.905734
33.100000 -112.100000 3.901647
33.400000 -112.100000 3.896868
33.700000 -112.100000 3.892406
34.000000 -112.100000 3.888727
34.300000 -112.100000 3.886004
34.600000 -112.100000 3.884731
34.900000 -112.100000 3.885039
35.200000 -112.100000 3.887158
35.500000 -112.100000 3.891008
35.800000 -112.100000 3.896622
36.100000 -112.100000 3.902261
36.400000 -112.100000 3.907318
36.700000 -112.100000 3.911220
37.000000 -112.100000 3.913245
37.300000 -112.100000 3.913524
37.600000 -112.100000 3.912473
37.900000 -112.100000 3.910216
38.200000 -112.100000 3.907536
38.500000 -112.100000 3.906371
38.800000 -112.100000 3.907257
39.100000 -112.100000 3.909995
39.400000 -112.100000 3.914900
39.700000 -112.100000 3.922456
40.000000 -112.100000 3.932233
40.300000 -112.100000 3.942406
40.600000 -112.100000 3.952554
40.900000 -112.100000 3.961178
41.200000 -112.100000 3.965417
41.500000 -112.100000 3.966060
41.800000 -112.100000 3.960557
42.100000 -112.100000 3.950330
42.400000 -112.100000 3.937758
42.700000 -112.100000 3.922586
43.000000 -112.100000 3.907502
43.300000 -112.100000 3.895004
43.600000 -112.100000 3.886200
43.900000 -112.100000 3.882955
44.200000 -112.100000 3.886858
44.500000 -112.100000 3.897167
44.800000 -112.100000 3.913081
45.100000 -112.100000 3.931765
45.400000 -112.100000 3.954032
45.700000 -112.100000 3.973206
46.000000 -112.100000 3.988957
46.300000 -112.100000 4.005838
46.600000 -112.100000 4.021981
46.900000 -112.100000 4.037404
47.200000 -112.100000 4.051315
47.500000 -112.100000 4.063802
47.800000 -112.100000 4.074857
48.100000 -112.100000 4.084639
48.400000 -112.100000 4.089951
48.700000 -112.100000 4.094209
31.900000 -111.800000 3.905803
32.200000 -111.800000 3.904106
32.500000 -111.800000 3.902067
32.800000 -111.800000 3.899212
33.100000 -111.800000 3.894509
33.400000 -111.800000 3.890405
33.700000 -111.800000 3.887167
34.000000 -111.800000 3.884876
34.300000 -111.800000 3.883927
34.600000 -111.800000 3.884471
34.900000 -111.800000 3.886667
35.200000 -111.800000 3.889970
35.500000 -111.800000 3.895055
35.800000 -111.800000 3.901021
36.100000 -111.800000 3.907324
36.400000 -111.800000 3.912877
36.700000 -111.800000 3.917255
37.000000 -111.800000 3.920375
37.300000 -111.800000 3.921969
37.600000 -111.800000 3.922817
37.900000 -111.800000 3.922662
38.200000 -111.800000 3.922160
38.500000 -111.800000 3.922692
38.800000 -111.800000 3.924102
39.100000 -111.800000 3.927395
39.400000 -111.800000 3.932454
39.700000 -111.800000 3.939592
40.000000 -111.800000 3.948035
40.300000 -111.800000 3.957220
40.600000 -111.800000 3.966601
40.900000 -111.800000 3.972946
41.200000 -111.800000 3.976306
41.500000 -111.800000 3.974106
41.800000 -111.800000 3.968748
42.100000 -111.800000 3.958117
42.400000 -111.800000 3.947419
42.700000 -111.800000 3.933188
43.000000 -111.800000 3.920210
43.300000 -111.800000 3.907433
43.600000 -111.800000 3.898229
43.900000 -111.800000 3.894371
44.200000 -111.800000 3.897356
44.500000 -111.800000 3.905324
44.800000 -111.800000 3.918947
45.100000 -111.800000 3.936003
45.400000 -111.800000 3.957307
45.700000 -111.800000 3.976074
46.000000 -111.800000 3.991828
46.300000 -111.800000 4.009010
46.600000 -111.800000 4.024904
46.900000 -111.800000 4.039677
47.200000 -111.800000 4.052942
47.500000 -111.800000 4.064720
47.800000 -111.800000 4.075012
48.100000 -111.800000 4.084179
48.400000 -111.800000 4.089505
48.700000 -111.800000 4.093477
31.900000 -111.500000 3.902667
32.200000 -111.500000 3.900213
32.500000 -111.500000 3.897401
32.800000 -111.500000 3.892526
33.100000 -111.500000 3.888296
33.400000 -111.500000 3.885133
33.700000 -111.500000 3.883133
34.000000 -111.500000 3.882313
34.300000 -111.500000 3.882869
34.600000 -111.500000 3.885140
34.900000 -111.500000 3.888768
35.200000 -111.500000 3.893412
35.500000 -111.500000 3.899296
35.800000 -111.500000 3.905534
36.100000 -111.500000 3.912016
36.400000 -111.500000 3.918027
36.700000 -111.500000 3.922845
37.000000 -111.500000 3.926599
37.300000 -111.500000 3.929628
37.600000 -111.500000 3.932006
37.900000 -111.500000 3.934372
38.200000 -111.500000 3.935983
38.500000 -111.500000 3.937968
38.800000 -111.500000 3.940551
39.100000 -111.500000 3.944230
39.400000 -111.500000 3.949407
39.700000 -111.500000 3.955858
40.000000 -111.500000 3.963142
40.300000 -111.500000 3.971485
40.600000 -111.500000 3.979016
40.900000 -111.500000 3.984016
41.200000 -111.500000 3.986704
41.500000 -111.500000 3.982859
41.800000 -111.500000 3.975900
42.100000 -111.500000 3.966049
42.400000 -111.500000 3.957262
42.700000 -111.500000 3.945386
43.000000 -111.500000 3.934115
43.300000 -111.500000 3.922485
43.600000 -111.500000 3.912810
43.900000 -111.500000 3.908641
44.200000 -111.500000 3.909886
44.500000 -111.500000 3.916534
44.800000 -111.500000 3.927234
45.100000 -111.500000 3.942127
45.400000 -111.500000 3.961658
45.700000 -111.500000 3.979854
46.000000 -111.500000 3.995213
46.300000 -111.500000 4.012026
46.600000 -111.500000 4.027589
46.900000 -111.500000 4.041880
47.200000 -111.500000 4.054422
47.500000 -111.500000 4.065303
47.800000 -111.500000 4.074967
48.100000 -111.500000 4.083685
48.400000 -111.500000 4.088906
48.700000 -111.500000 4.092659
31.600000 -111.200000 3.901718
31.900000 -111.200000 3.899267
32.200000 -111.200000 3.896516
32.500000 -111.200000 3.891927
32.800000 -111.200000 3.887231
33.100000 -111.200000 3.883594
33.400000 -111.200000 3.881246
33.700000 -111.200000 3.880399
34.000000 -111.200000 3.881079
34.300000 -111.200000 3.883197
34.600000 -111.200000 3.886783
34.900000 -111.200000 3.891451
35.200000 -111.200000 3.897237
35.500000 -111.200000 3.903677
35.800000 -111.200000 3.910322
36.100000 -111.200000 3.916584
36.400000 -111.200000 3.922596
36.700000 -111.200000 3.927510
37.000000 -111.200000 3.931827
37.300000 -111.200000 3.936283
37.600000 -111.200000 3.940283
37.900000 -111.200000 3.944148
38.200000 -111.200000 3.948191
38.500000 -111.200000 3.951269
38.800000 -111.200000 3.955474
39.100000 -111.200000 3.959377
39.400000 -111.200000 3.964558
39.700000 -111.200000 3.970229
40.000000 -111.200000 3.977210
40.300000 -111.200000 3.984230
40.600000 -111.200000 3.990970
40.900000 -111.200000 3.994816
41.200000 -111.200000 3.995493
41.500000 -111.200000 3.991408
41.800000 -111.200000 3.983584
42.100000 -111.200000 3.974937
42.400000 -111.200000 3.967660
42.700000 -111.200000 3.958641
43.000000 -111.200000 3.948650
43.300000 -111.200000 3.937844
43.600000 -111.200000 3.928524
43.900000 -111.200000 3.923540
44.200000 -111.200000 3.923495
44.500000 -111.200000 3.928380
44.800000 -111.200000 3.937250
45.100000 -111.200000 3.949808
45.400000 -111.200000 3.967492
45.700000 -111.200000 3.984368
46.000000 -111.200000 3.999002
46.300000 -111.200000 4.015158
46.600000 -111.200000 4.030315
46.900000 -111.200000 4.043907
47.200000 -111.200000 4.055849
47.500000 -111.200000 4.066208
47.800000 -111.200000 4.075240
48.100000 -111.200000 4.083551
48.400000 -111.200000 4.088503
48.700000 -111.200000 4.092140
31.600000 -110.900000 3.899057
31.900000 -110.900000 3.896191
32.200000 -110.900000 3.893165
32.500000 -110.900000 3.887902
32.800000 -110.900000 3.883558
33.100000 -110.900000 3.880431
33.400000 -110.900000 3.878577
33.700000 -110.900000 3.878610
34.000000 -110.900000 3.880647
34.300000 -110.900000 3.884066
34.600000 -110.900000 3.888765
34.900000 -110.900000 3.894427
35.200000 -110.900000 3.901124
35.500000 -110.900000 3.908109
35.800000 -110.900000 3.914872
36.100000 -110.900000 3.920996
36.400000 -110.900000 3.926554
36.700000 -110.900000 3.931323
37.000000 -110.900000 3.936327
37.300000 -110.900000 3.941411
37.600000 -110.900000 3.946932
37.900000 -110.900000 3.952402
38.200000 -110.900000 3.957550
38.500000 -110.900000 3.962872
38.800000 -110.900000 3.967034
39.100000 -110.900000 3.972171
39.400000 -110.900000 3.976920
39.700000 -110.900000 3.982411
40.000000 -110.900000 3.988992
40.300000 -110.900000 3.996127
40.600000 -110.900000 4.001641
40.900000 -110.900000 4.004386
41.200000 -110.900000 4.003149
41.500000 -110.900000 3.998934
41.800000 -110.900000 3.992525
42.100000 -110.900000 3.985333
42.400000 -110.900000 3.979584
42.700000 -110.900000 3.972345
43.000000 -110.900000 3.963840
43.300000 -110.900000 3.954335
43.600000 -110.900000 3.945651
43.900000 -110.900000 3.939853
44.200000 -110.900000 3.937859
44.500000 -110.900000 3.941154
44.800000 -110.900000 3.948544
45.100000 -110.900000 3.958858
45.400000 -110.900000 3.974292
45.700000 -110.900000 3.989727
46.000000 -110.900000 4.003449
46.300000 -110.900000 4.018886
46.600000 -110.900000 4.033353
46.900000 -110.900000 4.046233
47.200000 -110.900000 4.057556
47.500000 -110.900000 4.067237
47.800000 -110.900000 4.075824
48.100000 -110.900000 4.083780
48.400000 -110.900000 4.088610
48.700000 -110.900000 4.092108
31.600000 -110.600000 3.897713
31.900000 -110.600000 3.894542
32.200000 -110.600000 3.890182
32.500000 -110.600000 3.885045
32.800000 -110.600000 3.881080
33.100000 -110.600000 3.878563
33.400000 -110.600000 3.877383
33.700000 -110.600000 3.878152
34.000000 -110.600000 3.880748
34.300000 -110.600000 3.885064
34.600000 -110.600000 3.890708
34.900000 -110.600000 3.897469
35.200000 -110.600000 3.904721
35.500000 -110.600000 3.912155
35.800000 -110.600000 3.919176
36.100000 -110.600000 3.925088
36.400000 -110.600000 3.930049
36.700000 -110.600000 3.934795
37.000000 -110.600000 3.939828
37.300000 -110.600000 3.945300
37.600000 -110.600000 3.951683
37.900000 -110.600000 3.958179
38.200000 -110.600000 3.964831
38.500000 -110.600000 3.970659
38.800000 -110.600000 3.976272
39.100000 -110.600000 3.981290
39.400000 -110.600000 3.986326
39.700000 -110.600000 3.991678
40.000000 -110.600000 3.997911
40.300000 -110.600000 4.004647
40.600000 -110.600000 4.010338
40.900000 -110.600000 4.011792
41.200000 -110.600000 4.010627
41.500000 -110.600000 4.006031
41.800000 -110.600000 4.002267
42.100000 -110.600000 3.996724
42.400000 -110.600000 3.992248
42.700000 -110.600000 3.986162
43.000000 -110.600000 3.979384
43.300000 -110.600000 3.970968
43.600000 -110.600000 3.962685
43.900000 -110.600000 3.955822
44.200000 -110.600000 3.952872
44.500000 -110.600000 3.954420
44.800000 -110.600000 3.960401
45.100000 -110.600000 3.968727
45.400000 -110.600000 3.982161
45.700000 -110.600000 3.996321
46.000000 -110.600000 4.009104
46.300000 -110.600000 4.023479
46.600000 -110.600000 4.036985
46.900000 -110.600000 4.049090
47.200000 -110.600000 4.059690
47.500000 -110.600000 4.068742
47.800000 -110.600000 4.076893
48.100000 -110.600000 4.084495
48.400000 -110.600000 4.089262
48.700000 -110.600000 4.092837
31.300000 -110.300000 3.898578
31.600000 -110.300000 3.896087
31.900000 -110.300000 3.893115
32.200000 -110.300000 3.888600
32.500000 -110.300000 3.883934
32.800000 -110.300000 3.880022
33.100000 -110.300000 3.877683
33.400000 -110.300000 3.877225
33.700000 -110.300000 3.878560
34.000000 -110.300000 3.881556
34.300000 -110.300000 3.886288
34.600000 -110.300000 3.892906
34.900000 -110.300000 3.900597
35.200000 -110.300000 3.908534
35.500000 -110.300000 3.916320
35.800000 -110.300000 3.923305
36.100000 -110.300000 3.929035
36.400000 -110.300000 3.933545
36.700000 -110.300000 3.937707
37.000000 -110.300000 3.942400
37.300000 -110.300000 3.948174
37.600000 -110.300000 3.954748
37.900000 -110.300000 3.962024
38.200000 -110.300000 3.969011
38.500000 -110.300000 3.975792
38.800000 -110.300000 3.981795
39.100000 -110.300000 3.987154
39.400000 -110.300000 3.992344
39.700000 -110.300000 3.997668
40.000000 -110.300000 4.003727
40.300000 -110.300000 4.009769
40.600000 -110.300000 4.015356
40.900000 -110.300000 4.017290
41.200000 -110.300000 4.016951
41.500000 -110.300000 4.014531
41.800000 -110.300000 4.012112
42.100000 -110.300000 4.008425
42.400000 -110.300000 4.004756
42.700000 -110.300000 4.000285
43.000000 -110.300000 3.994134
43.300000 -110.300000 3.985877
43.600000 -110.300000 3.977621
43.900000 -110.300000 3.971626
44.200000 -110.300000 3.968726
44.500000 -110.300000 3.969058
44.800000 -110.300000 3.973347
45.100000 -110.300000 3.979987
45.400000 -110.300000 3.991574
45.700000 -110.300000 4.004154
46.000000 -110.300000 4.015563
46.300000 -110.300000 4.028783
46.600000 -110.300000 4.041255
46.900000 -110.300000 4.052577
47.200000 -110.300000 4.062071
47.500000 -110.300000 4.070856
47.800000 -110.300000 4.078747
48.100000 -110.300000 4.086542
48.400000 -110.300000 4.090845
48.700000 -110.300000 4.094614
31.300000 -110.000000 3.898272
31.600000 -110.000000 3.895851
31.900000 -110.000000 3.892608
32.200000 -110.000000 3.888092
32.500000 -110.000000 3.883708
32.800000 -110.000000 3.880175
33.100000 -110.000000 3.877993
33.400000 -110.000000 3.877747
33.700000 -110.000000 3.879193
34.000000 -110.000000 3.882389
34.300000 -110.000000 3.887704
34.600000 -110.000000 3.894968
34.900000 -110.000000 3.903479
35.200000 -110.000000 3.912168
35.500000 -110.000000 3.920290
35.800000 -110.000000 3.927309
36.100000 -110.000000 3.932698
36.400000 -110.000000 3.936804
36.700000 -110.000000 3.940070
37.000000 -110.000000 3.944228
37.300000 -110.000000 3.949736
37.600000 -110.000000 3.956494
37.900000 -110.000000 3.963576
38.200000 -110.000000 3.970795
38.500000 -110.000000 3.977624
38.800000 -110.000000 3.983793
39.100000 -110.000000 3.989468
39.400000 -110.000000 3.994707
39.700000 -110.000000 4.000230
40.000000 -110.000000 4.005997
40.300000 -110.000000 4.012028
40.600000 -110.000000 4.016978
40.900000 -110.000000 4.020662
41.200000 -110.000000 4.022720
41.500000 -110.000000 4.022814
41.800000 -110.000000 4.021385
42.100000 -110.000000 4.019520
42.400000 -110.000000 4.017737
42.700000 -110.000000 4.014222
43.000000 -110.000000 4.007742
43.300000 -110.000000 3.999529
43.600000 -110.000000 3.991660
43.900000 -110.000000 3.987176
44.200000 -110.000000 3.984660
44.500000 -110.000000 3.985010
44.800000 -110.000000 3.987652
45.100000 -110.000000 3.993058
45.400000 -110.000000 4.002612
45.700000 -110.000000 4.013264
46.000000 -110.000000 4.023129
46.300000 -110.000000 4.034759
46.600000 -110.000000 4.045787
46.900000 -110.000000 4.055931
47.200000 -110.000000 4.064807
47.500000 -110.000000 4.072928
47.800000 -110.000000 4.080648
48.100000 -110.000000 4.088092
48.400000 -110.000000 4.092453
48.700000 -110.000000 4.096125
31.300000 -109.700000 3.899110
31.600000 -109.700000 3.896583
31.900000 -109.700000 3.893106
32.200000 -109.700000 3.888357
32.500000 -109.700000 3.884278
32.800000 -109.700000 3.880944
33.100000 -109.700000 3.878965
33.400000 -109.700000 3.878504
33.700000 -109.700000 3.879862
34.000000 -109.700000 3.883334
34.300000 -109.700000 3.888951
34.600000 -109.700000 3.896666
34.900000 -109.700000 3.905937
35.200000 -109.700000 3.915398
35.500000 -109.700000 3.924086
35.800000 -109.700000 3.930935
36.100000 -109.700000 3.935821
36.400000 -109.700000 3.939325
36.700000 -109.700000 3.942259
37.000000 -109.700000 3.945490
37.300000 -109.700000 3.950379
37.600000 -109.700000 3.956411
37.900000 -109.700000 3.963211
38.200000 -109.700000 3.969922
38.500000 -109.700000 3.976528
38.800000 -109.700000 3.982532
39.100000 -109.700000 3.988143
39.400000 -109.700000 3.993692
39.700000 -109.700000 3.999286
40.000000 -109.700000 4.005405
40.300000 -109.700000 4.011354
40.600000 -109.700000 4.016974
40.900000 -109.700000 4.021899
41.200000 -109.700000 4.026524
41.500000 -109.700000 4.028675
41.800000 -109.700000 4.029909
42.100000 -109.700000 4.030164
42.400000 -109.700000 4.029856
42.700000 -109.700000 4.026950
43.000000 -109.700000 4.021173
43.300000 -109.700000 4.012849
43.600000 -109.700000 4.006079
43.900000 -109.700000 4.002700
44.200000 -109.700000 4.001689
44.500000 -109.700000 4.002018
44.800000 -109.700000 4.003749
45.100000 -109.700000 4.007471
45.400000 -109.700000 4.014668
45.700000 -109.700000 4.023242
46.000000 -109.700000 4.031564
46.300000 -109.700000 4.041259
46.600000 -109.700000 4.050530
46.900000 -109.700000 4.059408
47.200000 -109.700000 4.067348
47.500000 -109.700000 4.074743
47.800000 -109.700000 4.082017
48.100000 -109.700000 4.089176
48.400000 -109.700000 4.093116
48.700000 -109.700000 4.096650
31.300000 -109.400000 3.900118
31.600000 -109.400000 3.897635
31.900000 -109.400000 3.894182
32.200000 -109.400000 3.889075
32.500000 -109.400000 3.884910
32.800000 -109.400000 3.881823
33.100000 -109.400000 3.880004
33.400000 -109.400000 3.879531
33.700000 -109.400000 3.880575
34.000000 -109.400000 3.884055
34.300000 -109.400000 3.889942
34.600000 -109.400000 3.898129
34.900000 -109.400000 3.907792
35.200000 -109.400000 3.917692
35.500000 -109.400000 3.927016
35.800000 -109.400000 3.933535
36.100000 -109.400000 3.938078
36.400000 -109.400000 3.941004
36.700000 -109.400000 3.943195
37.000000 -109.400000 3.945717
37.300000 -109.400000 3.949307
37.600000 -109.400000 3.954327
37.900000 -109.400000 3.960205
38.200000 -109.400000 3.966528
38.500000 -109.400000 3.972454
38.800000 -109.400000 3.978138
39.100000 -109.400000 3.983756
39.400000 -109.400000 3.989713
39.700000 -109.400000 3.995910
40.000000 -109.400000 4.002455
40.300000 -109.400000 4.008997
40.600000 -109.400000 4.015244
40.900000 -109.400000 4.021552
41.200000 -109.400000 4.027828
41.500000 -109.400000 4.032639
41.800000 -109.400000 4.037471
42.100000 -109.400000 4.039683
42.400000 -109.400000 4.040466
42.700000 -109.400000 4.037460
43.000000 -109.400000 4.032710
43.300000 -109.400000 4.025470
43.600000 -109.400000 4.020101
43.900000 -109.400000 4.017895
44.200000 -109.400000 4.018742
44.500000 -109.400000 4.019970
44.800000 -109.400000 4.021257
45.100000 -109.400000 4.023571
45.400000 -109.400000 4.027975
45.700000 -109.400000 4.034199
46.000000 -109.400000 4.040321
46.300000 -109.400000 4.047787
46.600000 -109.400000 4.055270
46.900000 -109.400000 4.062590
47.200000 -109.400000 4.069418
47.500000 -109.400000 4.076122
47.800000 -109.400000 4.082785
48.100000 -109.400000 4.089529
48.400000 -109.400000 4.093374
48.700000 -109.400000 4.096950
31.300000 -109.100000 3.901490
31.600000 -109.100000 3.898709
31.900000 -109.100000 3.895253
32.200000 -109.100000 3.890031
32.500000 -109.100000 3.885727
32.800000 -109.100000 3.882412
33.100000 -109.100000 3.880501
33.400000 -109.100000 3.879894
33.700000 -109.100000 3.881015
34.000000 -109.100000 3.884460
34.300000 -109.100000 3.890432
34.600000 -109.100000 3.898810
34.900000 -109.100000 3.908446
35.200000 -109.100000 3.918698
35.500000 -109.100000 3.927886
35.800000 -109.100000 3.934495
36.100000 -109.100000 3.938615
36.400000 -109.100000 3.941114
36.700000 -109.100000 3.942628
37.000000 -109.100000 3.944173
37.300000 -109.100000 3.946451
37.600000 -109.100000 3.950110
37.900000 -109.100000 3.955012
38.200000 -109.100000 3.960522
38.500000 -109.100000 3.965962
38.800000 -109.100000 3.971275
39.100000 -109.100000 3.977169
39.400000 -109.100000 3.983395
39.700000 -109.100000 3.990111
40.000000 -109.100000 3.997496
40.300000 -109.100000 4.004372
40.600000 -109.100000 4.012195
40.900000 -109.100000 4.019877
41.200000 -109.100000 4.027600
41.500000 -109.100000 4.035142
41.800000 -109.100000 4.042740
42.100000 -109.100000 4.047226
42.400000 -109.100000 4.048251
42.700000 -109.100000 4.046727
43.000000 -109.100000 4.042984
43.300000 -109.100000 4.038455
43.600000 -109.100000 4.034645
43.900000 -109.100000 4.034482
44.200000 -109.100000 4.036627
44.500000 -109.100000 4.038957
44.800000 -109.100000 4.039737
45.100000 -109.100000 4.040445
45.400000 -109.100000 4.042046
45.700000 -109.100000 4.045409
46.000000 -109.100000 4.049207
46.300000 -109.100000 4.054267
46.600000 -109.100000 4.059743
46.900000 -109.100000 4.065289
47.200000 -109.100000 4.070925
47.500000 -109.100000 4.076774
47.800000 -109.100000 4.082860
48.100000 -109.100000 4.089330
48.400000 -109.100000 4.093159
48.700000 -109.100000 4.096529
31.300000 -108.800000 3.902447
31.600000 -108.800000 3.899339
31.900000 -108.800000 3.896006
32.200000 -108.800000 3.890570
32.500000 -108.800000 3.886048
32.800000 -108.800000 3.882723
33.100000 -108.800000 3.880530
33.400000 -108.800000 3.879919
33.700000 -108.800000 3.881184
34.000000 -108.800000 3.884633
34.300000 -108.800000 3.890388
34.600000 -108.800000 3.898587
34.900000 -108.800000 3.908222
35.200000 -108.800000 3.918077
35.500000 -108.800000 3.926800
35.800000 -108.800000 3.933186
36.100000 -108.800000 3.937151
36.400000 -108.800000 3.939081
36.700000 -108.800000 3.939821
37.000000 -108.800000 3.940380
37.300000 -108.800000 3.941659
37.600000 -108.800000 3.944358
37.900000 -108.800000 3.948096
38.200000 -108.800000 3.952702
38.500000 -108.800000 3.957450
38.800000 -108.800000 3.962810
39.100000 -108.800000 3.968580
39.400000 -108.800000 3.975026
39.700000 -108.800000 3.982394
40.000000 -108.800000 3.990383
40.300000 -108.800000 3.998491
40.600000 -108.800000 4.007372
40.900000 -108.800000 4.017107
41.200000 -108.800000 4.026257
41.500000 -108.800000 4.036223
41.800000 -108.800000 4.045121
42.100000 -108.800000 4.052111
42.400000 -108.800000 4.054405
42.700000 -108.800000 4.054758
43.000000 -108.800000 4.052276
43.300000 -108.800000 4.050252
43.600000 -108.800000 4.049047
43.900000 -108.800000 4.051673
44.200000 -108.800000 4.055353
44.500000 -108.800000 4.058208
44.800000 -108.800000 4.058589
45.100000 -108.800000 4.057125
45.400000 -108.800000 4.055829
45.700000 -108.800000 4.056412
46.000000 -108.800000 4.058038
46.300000 -108.800000 4.060469
46.600000 -108.800000 4.063592
46.900000 -108.800000 4.067424
47.200000 -108.800000 4.071879
47.500000 -108.800000 4.076909
47.800000 -108.800000 4.082419
48.100000 -108.800000 4.088432
48.400000 -108.800000 4.092308
48.700000 -108.800000 4.095471
31.300000 -108.500000 3.902701
31.600000 -108.500000 3.899181
31.900000 -108.500000 3.895449
32.200000 -108.500000 3.890798
32.500000 -108.500000 3.886114
32.800000 -108.500000 3.882636
33.100000 -108.500000 3.880536
33.400000 -108.500000 3.880054
33.700000 -108.500000 3.881442
34.000000 -108.500000 3.884896
34.300000 -108.500000 3.890262
34.600000 -108.500000 3.898041
34.900000 -108.500000 3.907155
35.200000 -108.500000 3.916380
35.500000 -108.500000 3.924169
35.800000 -108.500000 3.929721
36.100000 -108.500000 3.933532
36.400000 -108.500000 3.934979
36.700000 -108.500000 3.935085
37.000000 -108.500000 3.934975
37.300000 -108.500000 3.935711
37.600000 -108.500000 3.937279
37.900000 -108.500000 3.940515
38.200000 -108.500000 3.944163
38.500000 -108.500000 3.948523
38.800000 -108.500000 3.953675
39.100000 -108.500000 3.959417
39.400000 -108.500000 3.965771
39.700000 -108.500000 3.973372
40.000000 -108.500000 3.982084
40.300000 -108.500000 3.991787
40.600000 -108.500000 4.002037
40.900000 -108.500000 4.012531
41.200000 -108.500000 4.023767
41.500000 -108.500000 4.035010
41.800000 -108.500000 4.045449
42.100000 -108.500000 4.054386
42.400000 -108.500000 4.059206
42.700000 -108.500000 4.061713
43.000000 -108.500000 4.060913
43.300000 -108.500000 4.061001
43.600000 -108.500000 4.063249
43.900000 -108.500000 4.068694
44.200000 -108.500000 4.073959
44.500000 -108.500000 4.076890
44.800000 -108.500000 4.076255
45.100000 -108.500000 4.072961
45.400000 -108.500000 4.069105
45.700000 -108.500000 4.066808
46.000000 -108.500000 4.065897
46.300000 -108.500000 4.065791
46.600000 -108.500000 4.066895
46.900000 -108.500000 4.069071
47.200000 -108.500000 4.072073
47.500000 -108.500000 4.076493
47.800000 -108.500000 4.081362
48.100000 -108.500000 4.087183
48.400000 -108.500000 4.090766
48.700000 -108.500000 4.093770
31.600000 -108.200000 3.898323
31.900000 -108.200000 3.894407
32.200000 -108.200000 3.890267
32.500000 -108.200000 3.886175
32.800000 -108.200000 3.882772
33.100000 -108.200000 3.881029
33.400000 -108.200000 3.881042
33.700000 -108.200000 3.882698
34.000000 -108.200000 3.886022
34.300000 -108.200000 3.891168
34.600000 -108.200000 3.897881
34.900000 -108.200000 3.905599
35.200000 -108.200000 3.913163
35.500000 -108.200000 3.919968
35.800000 -108.200000 3.924581
36.100000 -108.200000 3.927622
36.400000 -108.200000 3.928793
36.700000 -108.200000 3.928669
37.000000 -108.200000 3.928431
37.300000 -108.200000 3.928194
37.600000 -108.200000 3.929611
37.900000 -108.200000 3.932058
38.200000 -108.200000 3.935876
38.500000 -108.200000 3.939795
38.800000 -108.200000 3.944662
39.100000 -108.200000 3.950137
39.400000 -108.200000 3.956456
39.700000 -108.200000 3.964515
40.000000 -108.200000 3.973606
40.300000 -108.200000 3.984520
40.600000 -108.200000 3.995789
40.900000 -108.200000 4.007824
41.200000 -108.200000 4.020022
41.500000 -108.200000 4.032567
41.800000 -108.200000 4.044344
42.100000 -108.200000 4.055309
42.400000 -108.200000 4.062882
42.700000 -108.200000 4.067472
43.000000 -108.200000 4.070073
43.300000 -108.200000 4.072425
43.600000 -108.200000 4.077530
43.900000 -108.200000 4.084503
44.200000 -108.200000 4.091153
44.500000 -108.200000 4.093677
44.800000 -108.200000 4.092042
45.100000 -108.200000 4.087278
45.400000 -108.200000 4.081310
45.700000 -108.200000 4.076483
46.000000 -108.200000 4.073171
46.300000 -108.200000 4.070681
46.600000 -108.200000 4.069903
46.900000 -108.200000 4.070381
47.200000 -108.200000 4.072265
47.500000 -108.200000 4.075707
47.800000 -108.200000 4.080182
48.100000 -108.200000 4.085492
48.400000 -108.200000 4.089109
48.700000 -108.200000 4.091911
31.900000 -107.900000 3.893340
32.200000 -107.900000 3.890328
32.500000 -107.900000 3.886944
32.800000 -107.900000 3.883804
33.100000 -107.900000 3.882809
33.400000 -107.900000 3.883352
33.700000 -107.900000 3.885411
34.000000 -107.900000 3.888368
34.300000 -107.900000 3.892990
34.600000 -107.900000 3.898332
34.900000 -107.900000 3.904037
35.200000 -107.900000 3.909652
35.500000 -107.900000 3.914596
35.800000 -107.900000 3.918245
36.100000 -107.900000 3.920483
36.400000 -107.900000 3.921471
36.700000 -107.900000 3.921621
37.000000 -107.900000 3.921107
37.300000 -107.900000 3.920916
37.600000 -107.900000 3.922036
37.900000 -107.900000 3.924882
38.200000 -107.900000 3.928441
38.500000 -107.900000 3.932588
38.800000 -107.900000 3.937019
39.100000 -107.900000 3.941937
39.400000 -107.900000 3.948410
39.700000 -107.900000 3.956509
40.000000 -107.900000 3.966044
40.300000 -107.900000 3.977578
40.600000 -107.900000 3.990150
40.900000 -107.900000 4.003038
41.200000 -107.900000 4.016475
41.500000 -107.900000 4.029925
41.800000 -107.900000 4.042351
42.100000 -107.900000 4.055575
42.400000 -107.900000 4.065030
42.700000 -107.900000 4.072187
43.000000 -107.900000 4.077977
43.300000 -107.900000 4.083319
43.600000 -107.900000 4.090636
43.900000 -107.900000 4.098401
44.200000 -107.900000 4.104996
44.500000 -107.900000 4.107501
44.800000 -107.900000 4.105122
45.100000 -107.900000 4.099612
45.400000 -107.900000 4.091620
45.700000 -107.900000 4.084994
46.000000 -107.900000 4.080059
46.300000 -107.900000 4.075575
46.600000 -107.900000 4.072914
46.900000 -107.900000 4.071877
47.200000 -107.900000 4.072688
47.500000 -107.900000 4.075381
47.800000 -107.900000 4.079358
48.100000 -107.900000 4.084578
48.400000 -107.900000 4.087953
48.700000 -107.900000 4.090727
31.900000 -107.600000 3.894143
32.200000 -107.600000 3.891307
32.500000 -107.600000 3.888797
32.800000 -107.600000 3.886445
33.100000 -107.600000 3.885639
33.400000 -107.600000 3.886698
33.700000 -107.600000 3.889155
34.000000 -107.600000 3.892337
34.300000 -107.600000 3.895722
34.600000 -107.600000 3.899295
34.900000 -107.600000 3.902951
35.200000 -107.600000 3.906324
35.500000 -107.600000 3.909164
35.800000 -107.600000 3.911132
36.100000 -107.600000 3.912728
36.400000 -107.600000 3.913735
36.700000 -107.600000 3.913924
37.000000 -107.600000 3.914027
37.300000 -107.600000 3.914502
37.600000 -107.600000 3.916262
37.900000 -107.600000 3.919245
38.200000 -107.600000 3.923186
38.500000 -107.600000 3.927305
38.800000 -107.600000 3.931493
39.100000 -107.600000 3.936205
39.400000 -107.600000 3.942521
39.700000 -107.600000 3.950560
40.000000 -107.600000 3.960588
40.300000 -107.600000 3.972352
40.600000 -107.600000 3.985513
40.900000 -107.600000 3.999437
41.200000 -107.600000 4.013563
41.500000 -107.600000 4.027412
41.800000 -107.600000 4.040811
42.100000 -107.600000 4.055011
42.400000 -107.600000 4.065967
42.700000 -107.600000 4.075719
43.000000 -107.600000 4.084113
43.300000 -107.600000 4.092146
43.600000 -107.600000 4.100988
43.900000 -107.600000 4.109676
44.200000 -107.600000 4.116158
44.500000 -107.600000 4.118425
44.800000 -107.600000 4.115785
45.100000 -107.600000 4.110064
45.400000 -107.600000 4.100933
45.700000 -107.600000 4.092960
46.000000 -107.600000 4.086606
46.300000 -107.600000 4.080482
46.600000 -107.600000 4.076221
46.900000 -107.600000 4.073891
47.200000 -107.600000 4.073662
47.500000 -107.600000 4.075499
47.800000 -107.600000 4.078916
48.100000 -107.600000 4.083834
48.400000 -107.600000 4.087315
48.700000 -107.600000 4.090149
31.900000 -107.300000 3.896457
32.200000 -107.300000 3.894302
32.500000 -107.300000 3.891944
32.800000 -107.300000 3.889912
33.100000 -107.300000 3.889720
33.400000 -107.300000 3.891415
33.700000 -107.300000 3.894112
34.000000 -107.300000 3.897110
34.300000 -107.300000 3.899267
34.600000 -107.300000 3.901151
34.900000 -107.300000 3.902270
35.200000 -107.300000 3.903041
35.500000 -107.300000 3.903628
35.800000 -107.300000 3.904506
36.100000 -107.300000 3.905233
36.400000 -107.300000 3.905969
36.700000 -107.300000 3.906875
37.000000 -107.300000 3.907689
37.300000 -107.300000 3.909562
37.600000 -107.300000 3.912316
37.900000 -107.300000 3.915976
38.200000 -107.300000 3.920268
38.500000 -107.300000 3.924761
38.800000 -107.300000 3.929166
39.100000 -107.300000 3.933962
39.400000 -107.300000 3.940008
39.700000 -107.300000 3.948088
40.000000 -107.300000 3.958045
40.300000 -107.300000 3.970200
40.600000 -107.300000 3.983227
40.900000 -107.300000 3.997587
41.200000 -107.300000 4.011548
41.500000 -107.300000 4.025785
41.800000 -107.300000 4.039587
42.100000 -107.300000 4.054135
42.400000 -107.300000 4.066161
42.700000 -107.300000 4.077901
43.000000 -107.300000 4.088105
43.300000 -107.300000 4.098259
43.600000 -107.300000 4.108287
43.900000 -107.300000 4.117700
44.200000 -107.300000 4.124151
44.500000 -107.300000 4.126365
44.800000 -107.300000 4.123761
45.100000 -107.300000 4.118086
45.400000 -107.300000 4.108954
45.700000 -107.300000 4.100403
46.000000 -107.300000 4.093113
46.300000 -107.300000 4.085429
46.600000 -107.300000 4.079617
46.900000 -107.300000 4.076082
47.200000 -107.300000 4.074903
47.500000 -107.300000 4.076043
47.800000 -107.300000 4.078842
48.100000 -107.300000 4.083213
48.400000 -107.300000 4.086392
48.700000 -107.300000 4.089189
31.900000 -107.000000 3.902913
32.200000 -107.000000 3.898807
32.500000 -107.000000 3.896560
32.800000 -107.000000 3.894736
33.100000 -107.000000 3.895004
33.400000 -107.000000 3.897004
33.700000 -107.000000 3.899814
34.000000 -107.000000 3.902314
34.300000 -107.000000 3.903422
34.600000 -107.000000 3.903518
34.900000 -107.000000 3.902431
35.200000 -107.000000 3.900794
35.500000 -107.000000 3.899228
35.800000 -107.000000 3.899081
36.100000 -107.000000 3.898844
36.400000 -107.000000 3.899665
36.700000 -107.000000 3.901120
37.000000 -107.000000 3.903540
37.300000 -107.000000 3.906522
37.600000 -107.000000 3.910735
37.900000 -107.000000 3.915384
38.200000 -107.000000 3.920721
38.500000 -107.000000 3.925553
38.800000 -107.000000 3.930485
39.100000 -107.000000 3.935351
39.400000 -107.000000 3.941454
39.700000 -107.000000 3.949209
40.000000 -107.000000 3.959112
40.300000 -107.000000 3.970715
40.600000 -107.000000 3.983722
40.900000 -107.000000 3.997384
41.200000 -107.000000 4.010970
41.500000 -107.000000 4.024920
41.800000 -107.000000 4.038714
42.100000 -107.000000 4.053436
42.400000 -107.000000 4.065655
42.700000 -107.000000 4.078171
43.000000 -107.000000 4.089831
43.300000 -107.000000 4.101588
43.600000 -107.000000 4.112598
43.900000 -107.000000 4.122428
44.200000 -107.000000 4.129288
44.500000 -107.000000 4.131817
44.800000 -107.000000 4.129628
45.100000 -107.000000 4.124396
45.400000 -107.000000 4.115953
45.700000 -107.000000 4.107292
46.000000 -107.000000 4.099403
46.300000 -107.000000 4.090620
46.600000 -107.000000 4.083616
46.900000 -107.000000 4.078815
47.200000 -107.000000 4.076519
47.500000 -107.000000 4.076828
47.800000 -107.000000 4.079136
48.100000 -107.000000 4.083034
48.400000 -107.000000 4.085921
48.700000 -107.000000 4.088428
31.900000 -106.700000 3.910591
32.200000 -106.700000 3.906360
32.500000 -106.700000 3.903004
32.800000 -106.700000 3.900964
33.100000 -106.700000 3.901553
33.400000 -106.700000 3.903487
33.700000 -106.700000 3.906037
34.000000 -106.700000 3.907623
34.300000 -106.700000 3.908071
34.600000 -106.700000 3.906756
34.900000 -106.700000 3.903974
35.200000 -106.700000 3.900250
35.500000 -106.700000 3.896844
35.800000 -106.700000 3.895491
36.100000 -106.700000 3.894835
36.400000 -106.700000 3.895679
36.700000 -106.700000 3.897959
37.000000 -106.700000 3.901705
37.300000 -106.700000 3.906460
37.600000 -106.700000 3.911872
37.900000 -106.700000 3.918515
38.200000 -106.700000 3.924686
38.500000 -106.700000 3.930290
38.800000 -106.700000 3.935588
39.100000 -106.700000 3.940684
39.400000 -106.700000 3.946500
39.700000 -106.700000 3.953774
40.000000 -106.700000 3.963306
40.300000 -106.700000 3.974177
40.600000 -106.700000 3.986275
40.900000 -106.700000 3.999104
41.200000 -106.700000 4.011872
41.500000 -106.700000 4.025009
41.800000 -106.700000 4.038447
42.100000 -106.700000 4.052410
42.400000 -106.700000 4.064189
42.700000 -106.700000 4.076868
43.000000 -106.700000 4.089200
43.300000 -106.700000 4.101641
43.600000 -106.700000 4.113456
43.900000 -106.700000 4.123547
44.200000 -106.700000 4.130615
44.500000 -106.700000 4.134026
44.800000 -106.700000 4.133428
45.100000 -106.700000 4.129482
45.400000 -106.700000 4.121914
45.700000 -106.700000 4.113729
46.000000 -106.700000 4.105411
46.300000 -106.700000 4.096012
46.600000 -106.700000 4.088020
46.900000 -106.700000 4.082243
47.200000 -106.700000 4.078746
47.500000 -106.700000 4.078215
47.800000 -106.700000 4.079798
48.100000 -106.700000 4.083414
48.400000 -106.700000 4.086049
48.700000 -106.700000 4.088450
31.600000 -106.400000 3.926511
31.900000 -106.400000 3.919800
32.200000 -106.400000 3.915564
32.500000 -106.400000 3.911434
32.800000 -106.400000 3.909643
33.100000 -106.400000 3.909769
33.400000 -106.400000 3.911266
33.700000 -106.400000 3.913090
34.000000 -106.400000 3.914120
34.300000 -106.400000 3.913641
34.600000 -106.400000 3.911205
34.900000 -106.400000 3.907194
35.200000 -106.400000 3.902190
35.500000 -106.400000 3.897296
35.800000 -106.400000 3.895054
36.100000 -106.400000 3.893880
36.400000 -106.400000 3.894855
36.700000 -106.400000 3.898025
37.000000 -106.400000 3.903040
37.300000 -106.400000 3.909300
37.600000 -106.400000 3.916920
37.900000 -106.400000 3.924632
38.200000 -106.400000 3.932102
38.500000 -106.400000 3.938209
38.800000 -106.400000 3.943864
39.100000 -106.400000 3.949184
39.400000 -106.400000 3.954763
39.700000 -106.400000 3.961742
40.000000 -106.400000 3.970049
40.300000 -106.400000 3.979782
40.600000 -106.400000 3.990613
40.900000 -106.400000 4.002432
41.200000 -106.400000 4.014125
41.500000 -106.400000 4.026284
41.800000 -106.400000 4.038394
42.100000 -106.400000 4.051114
42.400000 -106.400000 4.061886
42.700000 -106.400000 4.074043
43.000000 -106.400000 4.086191
43.300000 -106.400000 4.098946
43.600000 -106.400000 4.111251
43.900000 -106.400000 4.121767
44.200000 -106.400000 4.129183
44.500000 -106.400000 4.134080
44.800000 -106.400000 4.135529
45.100000 -106.400000 4.133601
45.400000 -106.400000 4.127157
45.700000 -106.400000 4.119395
46.000000 -106.400000 4.111231
46.300000 -106.400000 4.101340
46.600000 -106.400000 4.092951
46.900000 -106.400000 4.086146
47.200000 -106.400000 4.081723
47.500000 -106.400000 4.080202
47.800000 -106.400000 4.081138
48.100000 -106.400000 4.084329
48.400000 -106.400000 4.086617
48.700000 -106.400000 4.088729
31.600000 -106.100000 3.937935
31.900000 -106.100000 3.932175
32.200000 -106.100000 3.926698
32.500000 -106.100000 3.922741
32.800000 -106.100000 3.920678
33.100000 -106.100000 3.920352
33.400000 -106.100000 3.920945
33.700000 -106.100000 3.921772
34.000000 -106.100000 3.921854
34.300000 -106.100000 3.920536
34.600000 -106.100000 3.917231
34.900000 -106.100000 3.912310
35.200000 -106.100000 3.906577
35.500000 -106.100000 3.901145
35.800000 -106.100000 3.898091
36.100000 -106.100000 3.896759
36.400000 -106.100000 3.897898
36.700000 -106.100000 3.901717
37.000000 -106.100000 3.907794
37.300000 -106.100000 3.915727
37.600000 -106.100000 3.924730
37.900000 -106.100000 3.933548
38.200000 -106.100000 3.941611
38.500000 -106.100000 3.948501
38.800000 -106.100000 3.954328
39.100000 -106.100000 3.959668
39.400000 -106.100000 3.965373
39.700000 -106.100000 3.971619
40.000000 -106.100000 3.978587
40.300000 -106.100000 3.986828
40.600000 -106.100000 3.996363
40.900000 -106.100000 4.006866
41.200000 -106.100000 4.017498
41.500000 -106.100000 4.028101
41.800000 -106.100000 4.038630
42.100000 -106.100000 4.049420
42.400000 -106.100000 4.058711
42.700000 -106.100000 4.069616
43.000000 -106.100000 4.081111
43.300000 -106.100000 4.093440
43.600000 -106.100000 4.105867
43.900000 -106.100000 4.117269
44.200000 -106.100000 4.125942
44.500000 -106.100000 4.132449
44.800000 -106.100000 4.135954
45.100000 -106.100000 4.136211
45.400000 -106.100000 4.130950
45.700000 -106.100000 4.124120
46.000000 -106.100000 4.116374
46.300000 -106.100000 4.106686
46.600000 -106.100000 4.097979
46.900000 -106.100000 4.090631
47.200000 -106.100000 4.085587
47.500000 -106.100000 4.083165
47.800000 -106.100000 4.083428
48.100000 -106.100000 4.085801
48.400000 -106.100000 4.087879
48.700000 -106.100000 4.089703
31.300000 -105.800000 3.956302
31.600000 -105.800000 3.950225
31.900000 -105.800000 3.944422
32.200000 -105.800000 3.939843
32.500000 -105.800000 3.936512
32.800000 -105.800000 3.934662
33.100000 -105.800000 3.933610
33.400000 -105.800000 3.933141
33.700000 -105.800000 3.932514
34.000000 -105.800000 3.931382
34.300000 -105.800000 3.928919
34.600000 -105.800000 3.924902
34.900000 -105.800000 3.919560
35.200000 -105.800000 3.913567
35.500000 -105.800000 3.907909
35.800000 -105.800000 3.904703
36.100000 -105.800000 3.903328
36.400000 -105.800000 3.904881
36.700000 -105.800000 3.909269
37.000000 -105.800000 3.916208
37.300000 -105.800000 3.925191
37.600000 -105.800000 3.934902
37.900000 -105.800000 3.944454
38.200000 -105.800000 3.953043
38.500000 -105.800000 3.960299
38.800000 -105.800000 3.966189
39.100000 -105.800000 3.971386
39.400000 -105.800000 3.976756
39.700000 -105.800000 3.981969
40.000000 -105.800000 3.988006
40.300000 -105.800000 3.994893
40.600000 -105.800000 4.003302
40.900000 -105.800000 4.011947
41.200000 -105.800000 4.021295
41.500000 -105.800000 4.030224
41.800000 -105.800000 4.038602
42.100000 -105.800000 4.047457
42.400000 -105.800000 4.055088
42.700000 -105.800000 4.064343
43.000000 -105.800000 4.074805
43.300000 -105.800000 4.086526
43.600000 -105.800000 4.098663
43.900000 -105.800000 4.110862
44.200000 -105.800000 4.121458
44.500000 -105.800000 4.129542
44.800000 -105.800000 4.134944
45.100000 -105.800000 4.137096
45.400000 -105.800000 4.133740
45.700000 -105.800000 4.127814
46.000000 -105.800000 4.120975
46.300000 -105.800000 4.111922
46.600000 -105.800000 4.103197
46.900000 -105.800000 4.095536
47.200000 -105.800000 4.089915
47.500000 -105.800000 4.086966
47.800000 -105.800000 4.086392
48.100000 -105.800000 4.088089
48.400000 -105.800000 4.089902
48.700000 -105.800000 4.091430
31.000000 -105.500000 3.973095
31.300000 -105.500000 3.967757
31.600000 -105.500000 3.962603
31.900000 -105.500000 3.957925
32.200000 -105.500000 3.954871
32.500000 -105.500000 3.952597
32.800000 -105.500000 3.950686
33.100000 -105.500000 3.949278
33.400000 -105.500000 3.947434
33.700000 -105.500000 3.945465
34.000000 -105.500000 3.942674
34.300000 -105.500000 3.939101
34.600000 -105.500000 3.934231
34.900000 -105.500000 3.928575
35.200000 -105.500000 3.922637
35.500000 -105.500000 3.917304
35.800000 -105.500000 3.914127
36.100000 -105.500000 3.913237
36.400000 -105.500000 3.915301
36.700000 -105.500000 3.920236
37.000000 -105.500000 3.927559
37.300000 -105.500000 3.936827
37.600000 -105.500000 3.946944
37.900000 -105.500000 3.956546
38.200000 -105.500000 3.965328
38.500000 -105.500000 3.972569
38.800000 -105.500000 3.978410
39.100000 -105.500000 3.983479
39.400000 -105.500000 3.988195
39.700000 -105.500000 3.992654
40.000000 -105.500000 3.997567
40.300000 -105.500000 4.003993
40.600000 -105.500000 4.010720
40.900000 -105.500000 4.017711
41.200000 -105.500000 4.025116
41.500000 -105.500000 4.032138
41.800000 -105.500000 4.038732
42.100000 -105.500000 4.045452
42.400000 -105.500000 4.051455
42.700000 -105.500000 4.058731
43.000000 -105.500000 4.068099
43.300000 -105.500000 4.078869
43.600000 -105.500000 4.090940
43.900000 -105.500000 4.103660
44.200000 -105.500000 4.115885
44.500000 -105.500000 4.125452
44.800000 -105.500000 4.132879
45.100000 -105.500000 4.136715
45.400000 -105.500000 4.135511
45.700000 -105.500000 4.131107
46.000000 -105.500000 4.124984
46.300000 -105.500000 4.116751
46.600000 -105.500000 4.108218
46.900000 -105.500000 4.100830
47.200000 -105.500000 4.094993
47.500000 -105.500000 4.091433
47.800000 -105.500000 4.089998
48.100000 -105.500000 4.090888
48.400000 -105.500000 4.092099
48.700000 -105.500000 4.093463
30.700000 -105.200000 3.982887
31.000000 -105.200000 3.979816
31.300000 -105.200000 3.976655
31.600000 -105.200000 3.973874
31.900000 -105.200000 3.971852
32.200000 -105.200000 3.970856
32.500000 -105.200000 3.969803
32.800000 -105.200000 3.968616
33.100000 -105.200000 3.966477
33.400000 -105.200000 3.963559
33.700000 -105.200000 3.959657
34.000000 -105.200000 3.955395
34.300000 -105.200000 3.950416
34.600000 -105.200000 3.945012
34.900000 -105.200000 3.939039
35.200000 -105.200000 3.933249
35.500000 -105.200000 3.928480
35.800000 -105.200000 3.925822
36.100000 -105.200000 3.925575
36.400000 -105.200000 3.928405
36.700000 -105.200000 3.933683
37.000000 -105.200000 3.941217
37.300000 -105.200000 3.950364
37.600000 -105.200000 3.960187
37.900000 -105.200000 3.969355
38.200000 -105.200000 3.977645
38.500000 -105.200000 3.984596
38.800000 -105.200000 3.990506
39.100000 -105.200000 3.995463
39.400000 -105.200000 3.999679
39.700000 -105.200000 4.003566
40.000000 -105.200000 4.008126
40.300000 -105.200000 4.013364
40.600000 -105.200000 4.018620
40.900000 -105.200000 4.023780
41.200000 -105.200000 4.029313
41.500000 -105.200000 4.034312
41.800000 -105.200000 4.038967
42.100000 -105.200000 4.043632
42.400000 -105.200000 4.048184
42.700000 -105.200000 4.053945
43.000000 -105.200000 4.061816
43.300000 -105.200000 4.071574
43.600000 -105.200000 4.083386
43.900000 -105.200000 4.096361
44.200000 -105.200000 4.109621
44.500000 -105.200000 4.120785
44.800000 -105.200000 4.130227
45.100000 -105.200000 4.136416
45.400000 -105.200000 4.137314
45.700000 -105.200000 4.134426
46.000000 -105.200000 4.129183
46.300000 -105.200000 4.121923
46.600000 -105.200000 4.113950
46.900000 -105.200000 4.106832
47.200000 -105.200000 4.100789
47.500000 -105.200000 4.096660
47.800000 -105.200000 4.094607
48.100000 -105.200000 4.094152
48.400000 -105.200000 4.094873
48.700000 -105.200000 4.095585
30.400000 -104.900000 3.987650
30.700000 -104.900000 3.986915
31.000000 -104.900000 3.985850
31.300000 -104.900000 3.985007
31.600000 -104.900000 3.985264
31.900000 -104.900000 3.985743
32.200000 -104.900000 3.986587
32.500000 -104.900000 3.987133
32.800000 -104.900000 3.986168
33.100000 -104.900000 3.983753
33.400000 -104.900000 3.979661
33.700000 -104.900000 3.974445
34.000000 -104.900000 3.968573
34.300000 -104.900000 3.962602
34.600000 -104.900000 3.956454
34.900000 -104.900000 3.950350
35.200000 -104.900000 3.944853
35.500000 -104.900000 3.940983
35.800000 -104.900000 3.939133
36.100000 -104.900000 3.939678
36.400000 -104.900000 3.943161
36.700000 -104.900000 3.948853
37.000000 -104.900000 3.956536
37.300000 -104.900000 3.965278
37.600000 -104.900000 3.974284
37.900000 -104.900000 3.982739
38.200000 -104.900000 3.989925
38.500000 -104.900000 3.996557
38.800000 -104.900000 4.002280
39.100000 -104.900000 4.007080
39.400000 -104.900000 4.011107
39.700000 -104.900000 4.014988
40.000000 -104.900000 4.018982
40.300000 -104.900000 4.022886
40.600000 -104.900000 4.026642
40.900000 -104.900000 4.030491
41.200000 -104.900000 4.034046
41.500000 -104.900000 4.037295
41.800000 -104.900000 4.039604
42.100000 -104.900000 4.042545
42.400000 -104.900000 4.045691
42.700000 -104.900000 4.050229
43.000000 -104.900000 4.056616
43.300000 -104.900000 4.065835
43.600000 -104.900000 4.077018
43.900000 -104.900000 4.089785
44.200000 -104.900000 4.103360
44.500000 -104.900000 4.116127
44.800000 -104.900000 4.127246
45.100000 -104.900000 4.135506
45.400000 -104.900000 4.138729
45.700000 -104.900000 4.137198
46.000000 -104.900000 4.132981
46.300000 -104.900000 4.126789
46.600000 -104.900000 4.119825
46.900000 -104.900000 4.113035
47.200000 -104.900000 4.106946
47.500000 -104.900000 4.102462
47.800000 -104.900000 4.098836
48.100000 -104.900000 4.097390
48.400000 -104.900000 4.097157
48.700000 -104.900000 4.097887
30.400000 -104.600000 3.989258
30.700000 -104.600000 3.990631
31.000000 -104.600000 3.991165
31.300000 -104.600000 3.993148
31.600000 -104.600000 3.995281
31.900000 -104.600000 3.998059
32.200000 -104.600000 4.000919
32.500000 -104.600000 4.002915
32.800000 -104.600000 4.002495
33.100000 -104.600000 3.999626
33.400000 -104.600000 3.994780
33.700000 -104.600000 3.988409
34.000000 -104.600000 3.981594
34.300000 -104.600000 3.974717
34.600000 -104.600000 3.968220
34.900000 -104.600000 3.962235
35.200000 -104.600000 3.957370
35.500000 -104.600000 3.954347
35.800000 -104.600000 3.953432
36.100000 -104.600000 3.955080
36.400000 -104.600000 3.958955
36.700000 -104.600000 3.965196
37.000000 -104.600000 3.972472
37.300000 -104.600000 3.980567
37.600000 -104.600000 3.988581
37.900000 -104.600000 3.995968
38.200000 -104.600000 4.002585
38.500000 -104.600000 4.008493
38.800000 -104.600000 4.013872
39.100000 -104.600000 4.018523
