32.500000 -90.200000 3.488283
32.800000 -90.200000 3.486881
33.100000 -90.200000 3.508011
33.400000 -90.200000 3.532697
33.700000 -90.200000 3.565345
34.000000 -90.200000 3.592713
34.300000 -90.200000 3.651462
34.600000 -90.200000 3.663231
34.900000 -90.200000 3.660714
35.200000 -90.200000 3.666174
35.500000 -90.200000 3.661201
35.800000 -90.200000 3.651753
36.100000 -90.200000 3.642625
36.400000 -90.200000 3.625865
36.700000 -90.200000 3.615456
37.000000 -90.200000 3.618057
37.300000 -90.200000 3.615024
37.600000 -90.200000 3.593854
37.900000 -90.200000 3.582264
38.200000 -90.200000 3.587495
38.500000 -90.200000 3.580745
38.800000 -90.200000 3.573054
39.100000 -90.200000 3.574314
39.400000 -90.200000 3.582629
39.700000 -90.200000 3.597404
40.000000 -90.200000 3.595233
40.300000 -90.200000 3.591984
40.600000 -90.200000 3.598350
40.900000 -90.200000 3.602862
41.200000 -90.200000 3.628979
41.500000 -90.200000 3.627876
41.800000 -90.200000 3.611593
42.100000 -90.200000 3.608674
42.400000 -90.200000 3.609557
42.700000 -90.200000 3.609357
43.000000 -90.200000 3.600300
43.300000 -90.200000 3.602794
43.600000 -90.200000 3.607272
43.900000 -90.200000 3.616499
44.200000 -90.200000 3.619827
44.500000 -90.200000 3.622782
44.800000 -90.200000 3.612553
45.100000 -90.200000 3.630934
45.400000 -90.200000 3.644330
45.700000 -90.200000 3.637791
46.000000 -90.200000 3.615588
46.300000 -90.200000 3.588589
31.000000 -89.900000 3.457214
31.300000 -89.900000 3.498432
31.600000 -89.900000 3.506522
31.900000 -89.900000 3.507983
32.200000 -89.900000 3.494004
32.500000 -89.900000 3.481949
32.800000 -89.900000 3.472279
33.100000 -89.900000 3.496156
33.400000 -89.900000 3.523891
33.700000 -89.900000 3.566906
34.000000 -89.900000 3.593632
34.300000 -89.900000 3.650279
34.600000 -89.900000 3.670233
34.900000 -89.900000 3.661778
35.200000 -89.900000 3.663076
35.500000 -89.900000 3.650850
35.800000 -89.900000 3.642686
36.100000 -89.900000 3.645142
36.400000 -89.900000 3.639066
36.700000 -89.900000 3.618795
37.000000 -89.900000 3.616281
37.300000 -89.900000 3.619985
37.600000 -89.900000 3.603685
37.900000 -89.900000 3.582163
38.200000 -89.900000 3.566051
38.500000 -89.900000 3.563752
38.800000 -89.900000 3.565813
39.100000 -89.900000 3.573337
39.400000 -89.900000 3.581787
39.700000 -89.900000 3.592779
40.000000 -89.900000 3.586633
40.300000 -89.900000 3.586148
40.600000 -89.900000 3.589638
40.900000 -89.900000 3.603034
41.200000 -89.900000 3.616316
41.500000 -89.900000 3.634007
41.800000 -89.900000 3.606783
42.100000 -89.900000 3.600993
42.400000 -89.900000 3.616382
42.700000 -89.900000 3.620935
43.000000 -89.900000 3.615921
43.300000 -89.900000 3.626332
43.600000 -89.900000 3.617937
43.900000 -89.900000 3.622672
44.200000 -89.900000 3.629151
44.500000 -89.900000 3.625456
44.800000 -89.900000 3.615286
45.100000 -89.900000 3.635436
45.400000 -89.900000 3.643913
45.700000 -89.900000 3.628557
46.000000 -89.900000 3.624533
46.300000 -89.900000 3.611304
30.700000 -89.600000 3.439034
31.000000 -89.600000 3.461758
31.300000 -89.600000 3.501201
31.600000 -89.600000 3.511395
31.900000 -89.600000 3.501422
32.200000 -89.600000 3.500246
32.500000 -89.600000 3.485564
32.800000 -89.600000 3.477403
33.100000 -89.600000 3.487208
33.400000 -89.600000 3.516765
33.700000 -89.600000 3.562078
34.000000 -89.600000 3.601929
34.300000 -89.600000 3.642168
34.600000 -89.600000 3.675976
34.900000 -89.600000 3.658724
35.200000 -89.600000 3.673207
35.500000 -89.600000 3.658666
35.800000 -89.600000 3.638276
36.100000 -89.600000 3.636588
36.400000 -89.600000 3.645704
36.700000 -89.600000 3.628888
37.000000 -89.600000 3.629943
37.300000 -89.600000 3.614897
37.600000 -89.600000 3.608525
37.900000 -89.600000 3.579510
38.200000 -89.600000 3.558282
38.500000 -89.600000 3.549028
38.800000 -89.600000 3.555857
39.100000 -89.600000 3.568749
39.400000 -89.600000 3.583639
39.700000 -89.600000 3.590849
40.000000 -89.600000 3.598339
40.300000 -89.600000 3.582930
40.600000 -89.600000 3.595770
40.900000 -89.600000 3.608320
41.200000 -89.600000 3.611288
41.500000 -89.600000 3.625958
41.800000 -89.600000 3.606222
42.100000 -89.600000 3.613974
42.400000 -89.600000 3.646888
42.700000 -89.600000 3.641938
43.000000 -89.600000 3.625376
43.300000 -89.600000 3.642077
43.600000 -89.600000 3.629051
43.900000 -89.600000 3.636804
44.200000 -89.600000 3.637152
44.500000 -89.600000 3.640628
44.800000 -89.600000 3.626507
45.100000 -89.600000 3.637444
45.400000 -89.600000 3.640055
45.700000 -89.600000 3.635026
46.000000 -89.600000 3.633506
46.300000 -89.600000 3.614328
31.000000 -89.300000 3.469062
31.300000 -89.300000 3.508195
31.600000 -89.300000 3.528239
31.900000 -89.300000 3.506475
32.200000 -89.300000 3.488717
32.500000 -89.300000 3.486219
32.800000 -89.300000 3.481485
33.100000 -89.300000 3.496390
33.400000 -89.300000 3.509156
33.700000 -89.300000 3.557749
34.000000 -89.300000 3.592736
34.300000 -89.300000 3.668652
34.600000 -89.300000 3.694496
34.900000 -89.300000 3.675167
35.200000 -89.300000 3.672250
35.500000 -89.300000 3.667134
35.800000 -89.300000 3.648391
36.100000 -89.300000 3.672118
36.400000 -89.300000 3.641534
36.700000 -89.300000 3.637411
37.000000 -89.300000 3.643428
37.300000 -89.300000 3.627691
37.600000 -89.300000 3.610466
37.900000 -89.300000 3.588710
38.200000 -89.300000 3.570211
38.500000 -89.300000 3.555788
38.800000 -89.300000 3.556526
39.100000 -89.300000 3.572127
39.400000 -89.300000 3.582558
39.700000 -89.300000 3.592843
40.000000 -89.300000 3.598794
40.300000 -89.300000 3.607792
40.600000 -89.300000 3.618341
40.900000 -89.300000 3.588769
41.200000 -89.300000 3.599978
41.500000 -89.300000 3.606597
41.800000 -89.300000 3.606490
42.100000 -89.300000 3.620725
42.400000 -89.300000 3.659463
42.700000 -89.300000 3.657451
43.000000 -89.300000 3.635602
43.300000 -89.300000 3.652037
43.600000 -89.300000 3.644243
43.900000 -89.300000 3.645171
44.200000 -89.300000 3.636819
44.500000 -89.300000 3.635903
44.800000 -89.300000 3.629986
45.100000 -89.300000 3.633604
45.400000 -89.300000 3.644118
45.700000 -89.300000 3.644446
46.000000 -89.300000 3.631442
46.300000 -89.300000 3.620407
46.600000 -89.300000 3.599062
30.700000 -89.000000 3.451521
31.300000 -89.000000 3.518530
31.600000 -89.000000 3.515739
31.900000 -89.000000 3.504593
32.200000 -89.000000 3.497294
32.500000 -89.000000 3.500514
32.800000 -89.000000 3.484648
33.100000 -89.000000 3.503347
33.400000 -89.000000 3.509989
33.700000 -89.000000 3.549947
34.000000 -89.000000 3.588674
34.300000 -89.000000 3.674739
34.600000 -89.000000 3.703804
34.900000 -89.000000 3.680427
35.200000 -89.000000 3.666497
35.500000 -89.000000 3.649648
35.800000 -89.000000 3.678689
36.100000 -89.000000 3.676534
36.400000 -89.000000 3.657095
36.700000 -89.000000 3.665110
37.000000 -89.000000 3.643090
37.300000 -89.000000 3.616072
37.600000 -89.000000 3.603124
37.900000 -89.000000 3.590317
38.200000 -89.000000 3.574642
38.500000 -89.000000 3.553672
38.800000 -89.000000 3.573096
39.100000 -89.000000 3.579183
39.400000 -89.000000 3.584107
39.700000 -89.000000 3.581679
40.000000 -89.000000 3.595832
40.300000 -89.000000 3.603188
40.600000 -89.000000 3.596414
40.900000 -89.000000 3.582372
41.200000 -89.000000 3.583262
41.500000 -89.000000 3.598052
41.800000 -89.000000 3.605763
42.100000 -89.000000 3.624637
42.400000 -89.000000 3.651022
42.700000 -89.000000 3.639205
43.000000 -89.000000 3.639721
43.300000 -89.000000 3.647664
43.600000 -89.000000 3.648134
43.900000 -89.000000 3.647399
44.200000 -89.000000 3.640098
44.500000 -89.000000 3.637349
44.800000 -89.000000 3.632148
45.100000 -89.000000 3.639589
45.400000 -89.000000 3.648029
45.700000 -89.000000 3.643682
46.000000 -89.000000 3.631457
46.300000 -89.000000 3.614525
46.600000 -89.000000 3.604979
30.700000 -88.700000 3.449768
31.000000 -88.700000 3.474789
31.300000 -88.700000 3.507271
31.600000 -88.700000 3.515451
31.900000 -88.700000 3.518965
32.200000 -88.700000 3.504911
32.500000 -88.700000 3.507431
32.800000 -88.700000 3.509720
33.100000 -88.700000 3.514462
33.400000 -88.700000 3.515889
33.700000 -88.700000 3.549397
34.000000 -88.700000 3.596895
34.300000 -88.700000 3.663803
34.600000 -88.700000 3.683271
34.900000 -88.700000 3.661666
35.200000 -88.700000 3.667323
35.500000 -88.700000 3.661271
35.800000 -88.700000 3.683276
36.100000 -88.700000 3.682183
36.400000 -88.700000 3.650616
36.700000 -88.700000 3.638449
37.000000 -88.700000 3.640516
37.300000 -88.700000 3.631213
37.600000 -88.700000 3.603062
37.900000 -88.700000 3.597034
38.200000 -88.700000 3.576714
38.500000 -88.700000 3.581621
38.800000 -88.700000 3.597952
39.100000 -88.700000 3.594089
39.400000 -88.700000 3.584050
39.700000 -88.700000 3.570614
40.000000 -88.700000 3.577003
40.300000 -88.700000 3.581503
40.600000 -88.700000 3.584035
40.900000 -88.700000 3.563778
41.200000 -88.700000 3.586908
41.500000 -88.700000 3.606441
41.800000 -88.700000 3.615287
42.100000 -88.700000 3.623748
42.400000 -88.700000 3.641816
42.700000 -88.700000 3.635234
43.000000 -88.700000 3.632841
43.300000 -88.700000 3.645211
43.600000 -88.700000 3.654250
43.900000 -88.700000 3.647562
44.200000 -88.700000 3.642700
44.500000 -88.700000 3.642793
44.800000 -88.700000 3.644382
45.100000 -88.700000 3.647485
45.400000 -88.700000 3.644716
45.700000 -88.700000 3.644700
46.000000 -88.700000 3.634440
46.300000 -88.700000 3.633513
46.900000 -88.700000 3.604518
31.000000 -88.400000 3.462950
31.300000 -88.400000 3.503953
31.600000 -88.400000 3.514186
31.900000 -88.400000 3.521673
32.200000 -88.400000 3.510958
32.500000 -88.400000 3.511105
32.800000 -88.400000 3.519263
33.100000 -88.400000 3.524488
33.400000 -88.400000 3.527630
33.700000 -88.400000 3.549833
34.000000 -88.400000 3.586214
34.300000 -88.400000 3.641605
34.600000 -88.400000 3.660090
34.900000 -88.400000 3.663873
35.200000 -88.400000 3.662724
35.500000 -88.400000 3.677396
35.800000 -88.400000 3.678679
36.100000 -88.400000 3.681720
36.400000 -88.400000 3.625582
36.700000 -88.400000 3.621993
37.000000 -88.400000 3.611690
37.300000 -88.400000 3.611660
37.600000 -88.400000 3.609357
37.900000 -88.400000 3.610672
38.200000 -88.400000 3.605857
38.500000 -88.400000 3.593278
38.800000 -88.400000 3.601531
39.100000 -88.400000 3.583673
39.400000 -88.400000 3.573800
39.700000 -88.400000 3.562904
40.000000 -88.400000 3.546671
40.300000 -88.400000 3.550826
40.600000 -88.400000 3.562228
40.900000 -88.400000 3.562889
41.200000 -88.400000 3.594973
41.500000 -88.400000 3.625999
41.800000 -88.400000 3.625918
42.100000 -88.400000 3.644253
42.400000 -88.400000 3.637899
42.700000 -88.400000 3.633533
43.000000 -88.400000 3.613782
43.300000 -88.400000 3.611558
43.600000 -88.400000 3.642194
43.900000 -88.400000 3.642130
44.200000 -88.400000 3.653316
44.500000 -88.400000 3.651113
44.800000 -88.400000 3.655457
45.100000 -88.400000 3.656378
45.400000 -88.400000 3.647736
45.700000 -88.400000 3.649451
46.000000 -88.400000 3.637284
46.300000 -88.400000 3.640794
46.600000 -88.400000 3.646612
30.700000 -88.100000 3.459393
31.000000 -88.100000 3.465620
31.300000 -88.100000 3.491291
31.600000 -88.100000 3.505644
31.900000 -88.100000 3.528929
32.200000 -88.100000 3.518080
32.500000 -88.100000 3.502955
32.800000 -88.100000 3.521737
33.100000 -88.100000 3.531826
33.400000 -88.100000 3.541032
33.700000 -88.100000 3.554585
34.000000 -88.100000 3.581004
34.300000 -88.100000 3.621107
34.600000 -88.100000 3.645413
34.900000 -88.100000 3.651896
35.200000 -88.100000 3.651910
35.500000 -88.100000 3.663388
35.800000 -88.100000 3.662644
36.100000 -88.100000 3.668944
36.400000 -88.100000 3.617608
36.700000 -88.100000 3.562836
37.000000 -88.100000 3.599029
37.300000 -88.100000 3.590765
37.600000 -88.100000 3.600012
37.900000 -88.100000 3.617432
38.200000 -88.100000 3.611457
38.500000 -88.100000 3.593792
38.800000 -88.100000 3.577345
39.100000 -88.100000 3.575062
39.400000 -88.100000 3.562420
39.700000 -88.100000 3.557532
40.000000 -88.100000 3.554852
40.300000 -88.100000 3.554908
40.600000 -88.100000 3.579007
40.900000 -88.100000 3.575136
41.200000 -88.100000 3.605509
41.500000 -88.100000 3.632731
41.800000 -88.100000 3.656364
42.100000 -88.100000 3.647141
43.900000 -88.100000 3.648174
44.200000 -88.100000 3.648633
44.500000 -88.100000 3.653123
44.800000 -88.100000 3.663722
45.100000 -88.100000 3.662181
45.400000 -88.100000 3.649804
45.700000 -88.100000 3.645900
46.000000 -88.100000 3.631753
46.300000 -88.100000 3.637111
30.700000 -87.800000 3.479649
31.000000 -87.800000 3.478323
31.300000 -87.800000 3.494756
31.600000 -87.800000 3.486609
31.900000 -87.800000 3.520764
32.200000 -87.800000 3.527925
32.500000 -87.800000 3.518156
32.800000 -87.800000 3.519392
33.100000 -87.800000 3.525118
33.400000 -87.800000 3.535719
33.700000 -87.800000 3.553018
34.000000 -87.800000 3.578463
34.300000 -87.800000 3.603516
34.600000 -87.800000 3.631540
34.900000 -87.800000 3.639756
35.200000 -87.800000 3.644333
35.500000 -87.800000 3.653101
35.800000 -87.800000 3.647859
36.100000 -87.800000 3.635213
36.400000 -87.800000 3.611555
36.700000 -87.800000 3.610172
37.000000 -87.800000 3.602148
37.300000 -87.800000 3.580310
37.600000 -87.800000 3.595723
37.900000 -87.800000 3.601233
38.200000 -87.800000 3.610729
38.500000 -87.800000 3.585357
38.800000 -87.800000 3.570871
39.100000 -87.800000 3.569401
39.400000 -87.800000 3.554060
39.700000 -87.800000 3.543789
40.000000 -87.800000 3.561526
40.300000 -87.800000 3.566568
40.600000 -87.800000 3.596656
40.900000 -87.800000 3.584179
41.200000 -87.800000 3.607407
41.500000 -87.800000 3.631825
41.800000 -87.800000 3.670951
42.100000 -87.800000 3.644141
44.200000 -87.800000 3.662001
44.500000 -87.800000 3.640741
44.800000 -87.800000 3.638968
45.100000 -87.800000 3.641492
45.400000 -87.800000 3.621738
45.700000 -87.800000 3.621326
46.000000 -87.800000 3.603352
46.300000 -87.800000 3.614749
30.700000 -87.500000 3.489206
31.000000 -87.500000 3.490985
31.300000 -87.500000 3.504938
31.600000 -87.500000 3.525819
31.900000 -87.500000 3.557380
32.200000 -87.500000 3.561878
32.500000 -87.500000 3.538288
32.800000 -87.500000 3.520106
33.100000 -87.500000 3.510237
33.400000 -87.500000 3.534682
33.700000 -87.500000 3.558017
34.000000 -87.500000 3.572769
34.300000 -87.500000 3.592972
34.600000 -87.500000 3.616453
34.900000 -87.500000 3.626750
35.200000 -87.500000 3.634334
35.500000 -87.500000 3.637512
35.800000 -87.500000 3.631819
36.100000 -87.500000 3.623578
36.400000 -87.500000 3.588314
36.700000 -87.500000 3.603744
37.000000 -87.500000 3.591175
37.300000 -87.500000 3.560428
37.600000 -87.500000 3.610783
37.900000 -87.500000 3.618093
38.200000 -87.500000 3.589120
38.500000 -87.500000 3.568152
38.800000 -87.500000 3.557036
39.100000 -87.500000 3.558667
39.400000 -87.500000 3.555078
39.700000 -87.500000 3.557979
40.000000 -87.500000 3.562771
40.300000 -87.500000 3.588675
40.600000 -87.500000 3.600448
40.900000 -87.500000 3.579723
41.200000 -87.500000 3.587070
41.500000 -87.500000 3.618309
42.100000 -87.500000 3.657380
45.100000 -87.500000 3.599520
45.400000 -87.500000 3.618309
45.700000 -87.500000 3.610399
46.000000 -87.500000 3.611009
46.300000 -87.500000 3.595335
30.700000 -87.200000 3.500766
31.000000 -87.200000 3.504210
31.300000 -87.200000 3.536065
31.600000 -87.200000 3.569262
31.900000 -87.200000 3.597424
32.200000 -87.200000 3.580739
32.500000 -87.200000 3.544976
32.800000 -87.200000 3.528284
33.100000 -87.200000 3.534366
33.400000 -87.200000 3.547787
33.700000 -87.200000 3.568532
34.000000 -87.200000 3.566997
34.300000 -87.200000 3.580300
34.600000 -87.200000 3.593424
34.900000 -87.200000 3.605205
35.200000 -87.200000 3.616658
35.500000 -87.200000 3.619886
35.800000 -87.200000 3.624082
36.100000 -87.200000 3.624142
36.400000 -87.200000 3.590064
36.700000 -87.200000 3.583102
37.000000 -87.200000 3.569140
37.300000 -87.200000 3.566056
37.600000 -87.200000 3.606820
37.900000 -87.200000 3.589032
38.200000 -87.200000 3.576789
38.500000 -87.200000 3.557120
38.800000 -87.200000 3.535196
39.100000 -87.200000 3.543422
39.400000 -87.200000 3.546509
39.700000 -87.200000 3.554859
40.000000 -87.200000 3.564648
40.300000 -87.200000 3.585050
40.600000 -87.200000 3.588769
40.900000 -87.200000 3.565108
41.200000 -87.200000 3.557497
41.500000 -87.200000 3.575135
45.700000 -87.200000 3.616239
46.000000 -87.200000 3.613969
46.300000 -87.200000 3.589929
30.700000 -86.900000 3.499119
31.000000 -86.900000 3.486496
31.300000 -86.900000 3.518954
31.600000 -86.900000 3.550772
31.900000 -86.900000 3.616473
32.200000 -86.900000 3.584230
32.500000 -86.900000 3.556725
32.800000 -86.900000 3.531261
33.100000 -86.900000 3.541399
33.400000 -86.900000 3.561552
33.700000 -86.900000 3.569977
34.000000 -86.900000 3.565274
34.300000 -86.900000 3.562740
34.600000 -86.900000 3.571320
34.900000 -86.900000 3.581717
35.200000 -86.900000 3.595153
35.500000 -86.900000 3.604329
35.800000 -86.900000 3.618230
36.100000 -86.900000 3.622570
36.400000 -86.900000 3.612647
36.700000 -86.900000 3.592734
37.000000 -86.900000 3.572018
37.300000 -86.900000 3.551141
37.600000 -86.900000 3.564358
37.900000 -86.900000 3.558629
38.200000 -86.900000 3.541528
38.500000 -86.900000 3.522223
38.800000 -86.900000 3.527182
39.100000 -86.900000 3.536911
39.400000 -86.900000 3.549864
39.700000 -86.900000 3.563206
40.000000 -86.900000 3.577132
40.300000 -86.900000 3.597587
40.600000 -86.900000 3.593975
40.900000 -86.900000 3.573230
41.200000 -86.900000 3.569476
41.500000 -86.900000 3.548108
45.700000 -86.900000 3.628580
46.000000 -86.900000 3.585949
30.700000 -86.600000 3.482430
31.000000 -86.600000 3.490581
31.300000 -86.600000 3.508389
31.600000 -86.600000 3.542229
31.900000 -86.600000 3.578379
32.200000 -86.600000 3.559504
32.500000 -86.600000 3.555253
32.800000 -86.600000 3.532493
33.100000 -86.600000 3.544952
33.400000 -86.600000 3.558969
33.700000 -86.600000 3.554468
34.000000 -86.600000 3.552892
34.300000 -86.600000 3.557679
34.600000 -86.600000 3.563796
34.900000 -86.600000 3.573873
35.200000 -86.600000 3.584699
35.500000 -86.600000 3.584567
35.800000 -86.600000 3.599073
36.100000 -86.600000 3.606074
36.400000 -86.600000 3.588236
36.700000 -86.600000 3.605652
37.000000 -86.600000 3.583925
37.300000 -86.600000 3.548994
37.600000 -86.600000 3.553603
37.900000 -86.600000 3.544394
38.200000 -86.600000 3.528373
38.500000 -86.600000 3.505521
38.800000 -86.600000 3.528296
39.100000 -86.600000 3.539917
39.400000 -86.600000 3.557123
39.700000 -86.600000 3.577726
40.000000 -86.600000 3.597211
40.300000 -86.600000 3.631638
40.600000 -86.600000 3.630812
40.900000 -86.600000 3.605084
41.200000 -86.600000 3.576161
41.500000 -86.600000 3.557850
41.800000 -86.600000 3.577354
43.300000 -86.600000 3.684584
45.700000 -86.600000 3.643576
46.000000 -86.600000 3.574761
30.400000 -86.300000 3.470598
30.700000 -86.300000 3.491201
31.000000 -86.300000 3.518511
31.300000 -86.300000 3.537513
31.600000 -86.300000 3.501878
31.900000 -86.300000 3.511850
32.200000 -86.300000 3.514459
32.500000 -86.300000 3.554567
32.800000 -86.300000 3.547162
33.100000 -86.300000 3.556261
33.400000 -86.300000 3.538874
33.700000 -86.300000 3.539250
34.000000 -86.300000 3.548871
34.300000 -86.300000 3.564753
34.600000 -86.300000 3.568626
34.900000 -86.300000 3.572462
35.200000 -86.300000 3.577199
35.500000 -86.300000 3.573780
35.800000 -86.300000 3.580438
36.100000 -86.300000 3.582115
36.400000 -86.300000 3.562603
36.700000 -86.300000 3.580548
37.000000 -86.300000 3.581848
37.300000 -86.300000 3.553097
37.600000 -86.300000 3.559021
37.900000 -86.300000 3.539997
38.200000 -86.300000 3.525545
38.500000 -86.300000 3.518477
38.800000 -86.300000 3.528673
39.100000 -86.300000 3.536221
39.400000 -86.300000 3.574259
39.700000 -86.300000 3.602814
40.000000 -86.300000 3.640304
40.300000 -86.300000 3.658854
40.600000 -86.300000 3.666084
40.900000 -86.300000 3.623629
41.200000 -86.300000 3.598950
41.500000 -86.300000 3.597165
41.800000 -86.300000 3.631762
42.100000 -86.300000 3.666140
43.000000 -86.300000 3.676606
43.300000 -86.300000 3.675433
43.600000 -86.300000 3.655119
43.900000 -86.300000 3.648874
44.200000 -86.300000 3.623767
44.500000 -86.300000 3.614052
45.700000 -86.300000 3.655287
46.000000 -86.300000 3.569324
46.300000 -86.300000 3.536685
30.400000 -86.000000 3.432655
30.700000 -86.000000 3.504939
31.000000 -86.000000 3.576596
31.300000 -86.000000 3.580733
31.600000 -86.000000 3.526654
31.900000 -86.000000 3.489363
32.200000 -86.000000 3.537683
32.500000 -86.000000 3.588784
32.800000 -86.000000 3.571620
33.100000 -86.000000 3.537842
33.400000 -86.000000 3.517820
33.700000 -86.000000 3.524888
34.000000 -86.000000 3.539035
34.300000 -86.000000 3.557400
34.600000 -86.000000 3.573376
34.900000 -86.000000 3.574110
35.200000 -86.000000 3.582472
35.500000 -86.000000 3.581882
35.800000 -86.000000 3.579244
36.100000 -86.000000 3.565833
36.400000 -86.000000 3.542437
36.700000 -86.000000 3.546913
37.000000 -86.000000 3.552099
37.300000 -86.000000 3.524967
37.600000 -86.000000 3.540419
37.900000 -86.000000 3.529253
38.200000 -86.000000 3.533221
38.500000 -86.000000 3.515517
38.800000 -86.000000 3.529579
39.100000 -86.000000 3.542887
39.400000 -86.000000 3.613176
39.700000 -86.000000 3.707706
40.000000 -86.000000 3.688974
40.300000 -86.000000 3.682827
40.600000 -86.000000 3.649677
40.900000 -86.000000 3.628465
41.200000 -86.000000 3.599770
41.500000 -86.000000 3.643977
41.800000 -86.000000 3.650524
42.100000 -86.000000 3.659018
42.400000 -86.000000 3.666811
42.700000 -86.000000 3.671317
43.000000 -86.000000 3.665213
43.300000 -86.000000 3.658431
43.600000 -86.000000 3.648512
43.900000 -86.000000 3.650656
44.200000 -86.000000 3.625977
44.500000 -86.000000 3.611310
44.800000 -86.000000 3.619828
45.100000 -86.000000 3.639410
45.700000 -86.000000 3.644617
46.000000 -86.000000 3.581510
46.300000 -86.000000 3.535812
30.400000 -85.700000 3.406288
30.700000 -85.700000 3.509594
31.000000 -85.700000 3.635638
31.300000 -85.700000 3.656519
31.600000 -85.700000 3.560219
31.900000 -85.700000 3.517271
32.200000 -85.700000 3.536936
32.500000 -85.700000 3.596377
32.800000 -85.700000 3.583247
33.100000 -85.700000 3.542145
33.400000 -85.700000 3.505774
33.700000 -85.700000 3.512934
34.000000 -85.700000 3.532280
34.300000 -85.700000 3.543950
34.600000 -85.700000 3.554241
34.900000 -85.700000 3.567441
35.200000 -85.700000 3.579881
35.500000 -85.700000 3.576699
35.800000 -85.700000 3.565408
36.100000 -85.700000 3.550016
36.400000 -85.700000 3.522386
36.700000 -85.700000 3.543821
37.000000 -85.700000 3.553247
37.300000 -85.700000 3.517334
37.600000 -85.700000 3.527359
37.900000 -85.700000 3.535879
38.200000 -85.700000 3.530472
38.500000 -85.700000 3.532778
38.800000 -85.700000 3.555189
39.100000 -85.700000 3.577039
39.400000 -85.700000 3.612293
39.700000 -85.700000 3.687291
40.000000 -85.700000 3.703579
40.300000 -85.700000 3.705668
40.600000 -85.700000 3.638247
40.900000 -85.700000 3.637540
41.200000 -85.700000 3.635575
41.500000 -85.700000 3.643607
41.800000 -85.700000 3.672406
42.100000 -85.700000 3.673919
42.400000 -85.700000 3.656931
42.700000 -85.700000 3.651949
43.000000 -85.700000 3.646185
43.300000 -85.700000 3.656823
43.600000 -85.700000 3.646638
43.900000 -85.700000 3.642777
44.200000 -85.700000 3.639362
44.500000 -85.700000 3.636057
44.800000 -85.700000 3.659559
45.100000 -85.700000 3.671971
45.400000 -85.700000 3.645590
45.700000 -85.700000 3.596912
46.000000 -85.700000 3.569607
46.300000 -85.700000 3.544241
30.100000 -85.400000 3.435260
30.400000 -85.400000 3.436805
30.700000 -85.400000 3.521602
31.000000 -85.400000 3.648140
31.300000 -85.400000 3.706289
31.600000 -85.400000 3.617298
31.900000 -85.400000 3.589952
32.200000 -85.400000 3.540620
32.500000 -85.400000 3.584415
32.800000 -85.400000 3.587176
33.100000 -85.400000 3.540315
33.400000 -85.400000 3.512886
33.700000 -85.400000 3.515500
34.000000 -85.400000 3.522385
34.300000 -85.400000 3.529526
34.600000 -85.400000 3.540818
34.900000 -85.400000 3.546662
35.200000 -85.400000 3.556020
35.500000 -85.400000 3.549434
35.800000 -85.400000 3.551251
36.100000 -85.400000 3.535786
36.400000 -85.400000 3.528541
36.700000 -85.400000 3.555533
37.000000 -85.400000 3.545197
37.300000 -85.400000 3.518810
37.600000 -85.400000 3.515743
37.900000 -85.400000 3.523228
38.200000 -85.400000 3.530054
38.500000 -85.400000 3.549437
38.800000 -85.400000 3.559007
39.100000 -85.400000 3.584225
39.400000 -85.400000 3.608237
39.700000 -85.400000 3.638146
40.000000 -85.400000 3.647880
40.300000 -85.400000 3.658013
40.600000 -85.400000 3.630128
40.900000 -85.400000 3.632365
41.200000 -85.400000 3.636160
41.500000 -85.400000 3.645073
41.800000 -85.400000 3.654347
42.100000 -85.400000 3.659476
42.400000 -85.400000 3.638465
42.700000 -85.400000 3.627970
43.000000 -85.400000 3.626440
43.300000 -85.400000 3.639930
43.600000 -85.400000 3.637948
43.900000 -85.400000 3.658811
44.200000 -85.400000 3.630575
44.500000 -85.400000 3.634650
44.800000 -85.400000 3.669583
45.100000 -85.400000 3.637378
45.400000 -85.400000 3.624947
45.700000 -85.400000 3.577339
46.000000 -85.400000 3.567508
46.300000 -85.400000 3.563707
30.100000 -85.100000 3.498912
30.400000 -85.100000 3.501158
30.700000 -85.100000 3.518413
31.000000 -85.100000 3.614052
31.300000 -85.100000 3.651176
31.600000 -85.100000 3.610700
31.900000 -85.100000 3.619150
32.200000 -85.100000 3.578641
32.500000 -85.100000 3.571404
32.800000 -85.100000 3.558749
33.100000 -85.100000 3.548914
33.400000 -85.100000 3.531183
33.700000 -85.100000 3.531878
34.000000 -85.100000 3.538370
34.300000 -85.100000 3.532038
34.600000 -85.100000 3.531070
34.900000 -85.100000 3.529575
35.200000 -85.100000 3.535348
35.500000 -85.100000 3.522290
35.800000 -85.100000 3.524700
36.100000 -85.100000 3.532256
36.400000 -85.100000 3.537452
36.700000 -85.100000 3.561215
37.000000 -85.100000 3.559450
37.300000 -85.100000 3.515687
37.600000 -85.100000 3.512695
37.900000 -85.100000 3.517698
38.200000 -85.100000 3.527551
38.500000 -85.100000 3.572437
38.800000 -85.100000 3.581180
39.100000 -85.100000 3.584776
39.400000 -85.100000 3.597749
39.700000 -85.100000 3.624147
40.000000 -85.100000 3.632216
40.300000 -85.100000 3.630123
40.600000 -85.100000 3.626275
40.900000 -85.100000 3.624074
41.200000 -85.100000 3.627384
41.500000 -85.100000 3.636351
41.800000 -85.100000 3.637851
42.100000 -85.100000 3.633786
42.400000 -85.100000 3.617422
42.700000 -85.100000 3.603856
43.000000 -85.100000 3.605103
43.300000 -85.100000 3.634730
43.600000 -85.100000 3.621747
43.900000 -85.100000 3.610447
44.200000 -85.100000 3.608305
44.500000 -85.100000 3.605365
44.800000 -85.100000 3.634654
45.100000 -85.100000 3.640365
45.400000 -85.100000 3.586632
45.700000 -85.100000 3.556849
30.100000 -84.800000 3.521373
30.400000 -84.800000 3.517007
30.700000 -84.800000 3.497923
31.000000 -84.800000 3.533911
31.300000 -84.800000 3.612055
31.600000 -84.800000 3.588922
31.900000 -84.800000 3.638553
32.200000 -84.800000 3.618996
32.500000 -84.800000 3.576605
32.800000 -84.800000 3.544755
33.100000 -84.800000 3.553942
33.400000 -84.800000 3.564460
33.700000 -84.800000 3.556295
34.000000 -84.800000 3.550492
34.300000 -84.800000 3.533691
34.600000 -84.800000 3.527238
34.900000 -84.800000 3.521324
35.200000 -84.800000 3.521205
35.500000 -84.800000 3.507272
35.800000 -84.800000 3.504377
36.100000 -84.800000 3.518852
36.400000 -84.800000 3.524530
36.700000 -84.800000 3.545854
37.000000 -84.800000 3.538375
37.300000 -84.800000 3.517458
37.600000 -84.800000 3.515058
37.900000 -84.800000 3.513035
38.200000 -84.800000 3.541511
38.500000 -84.800000 3.590302
38.800000 -84.800000 3.606889
39.100000 -84.800000 3.576839
39.400000 -84.800000 3.588485
39.700000 -84.800000 3.604599
40.000000 -84.800000 3.608091
40.300000 -84.800000 3.608886
40.600000 -84.800000 3.606718
40.900000 -84.800000 3.609984
41.200000 -84.800000 3.613952
41.500000 -84.800000 3.621505
41.800000 -84.800000 3.615389
42.100000 -84.800000 3.606644
42.400000 -84.800000 3.588649
42.700000 -84.800000 3.582639
43.000000 -84.800000 3.591323
43.300000 -84.800000 3.622658
43.600000 -84.800000 3.618036
43.900000 -84.800000 3.598546
44.200000 -84.800000 3.613315
44.500000 -84.800000 3.615893
44.800000 -84.800000 3.624438
45.100000 -84.800000 3.621871
45.400000 -84.800000 3.559144
45.700000 -84.800000 3.570180
30.100000 -84.500000 3.502243
30.400000 -84.500000 3.516980
30.700000 -84.500000 3.496709
31.000000 -84.500000 3.495147
31.300000 -84.500000 3.566053
31.600000 -84.500000 3.570358
31.900000 -84.500000 3.653893
32.200000 -84.500000 3.651103
32.500000 -84.500000 3.617720
32.800000 -84.500000 3.568319
33.100000 -84.500000 3.587408
33.400000 -84.500000 3.582686
33.700000 -84.500000 3.582396
34.000000 -84.500000 3.569735
34.300000 -84.500000 3.537865
34.600000 -84.500000 3.528501
34.900000 -84.500000 3.526622
35.200000 -84.500000 3.523690
35.500000 -84.500000 3.511397
35.800000 -84.500000 3.509418
36.100000 -84.500000 3.503832
36.400000 -84.500000 3.510105
36.700000 -84.500000 3.519830
37.000000 -84.500000 3.525102
37.300000 -84.500000 3.531870
37.600000 -84.500000 3.531522
37.900000 -84.500000 3.522177
38.200000 -84.500000 3.554806
38.500000 -84.500000 3.571055
38.800000 -84.500000 3.595544
39.100000 -84.500000 3.572317
39.400000 -84.500000 3.581607
39.700000 -84.500000 3.589307
40.000000 -84.500000 3.591753
40.300000 -84.500000 3.575963
40.600000 -84.500000 3.596138
40.900000 -84.500000 3.604667
41.200000 -84.500000 3.597643
41.500000 -84.500000 3.596604
41.800000 -84.500000 3.587449
42.100000 -84.500000 3.580308
42.400000 -84.500000 3.583688
42.700000 -84.500000 3.577342
43.000000 -84.500000 3.591016
43.300000 -84.500000 3.591505
43.600000 -84.500000 3.607258
43.900000 -84.500000 3.595754
44.200000 -84.500000 3.609385
44.500000 -84.500000 3.648105
44.800000 -84.500000 3.645375
45.100000 -84.500000 3.597717
45.400000 -84.500000 3.566054
46.000000 -84.500000 3.711691
46.300000 -84.500000 3.729854
30.100000 -84.200000 3.501958
30.400000 -84.200000 3.533584
30.700000 -84.200000 3.524072
31.000000 -84.200000 3.497576
31.300000 -84.200000 3.536869
31.600000 -84.200000 3.540406
31.900000 -84.200000 3.654162
32.200000 -84.200000 3.686730
32.500000 -84.200000 3.651834
32.800000 -84.200000 3.613414
33.100000 -84.200000 3.608973
33.400000 -84.200000 3.612982
33.700000 -84.200000 3.604496
34.000000 -84.200000 3.588927
34.300000 -84.200000 3.555826
34.600000 -84.200000 3.537627
34.900000 -84.200000 3.523613
35.200000 -84.200000 3.524230
35.500000 -84.200000 3.519900
35.800000 -84.200000 3.512849
36.100000 -84.200000 3.493801
36.400000 -84.200000 3.487882
36.700000 -84.200000 3.503605
37.000000 -84.200000 3.519907
37.300000 -84.200000 3.532455
37.600000 -84.200000 3.540959
37.900000 -84.200000 3.525063
38.200000 -84.200000 3.552901
38.500000 -84.200000 3.559973
38.800000 -84.200000 3.554965
39.100000 -84.200000 3.532859
39.400000 -84.200000 3.563081
39.700000 -84.200000 3.573267
40.000000 -84.200000 3.575098
40.300000 -84.200000 3.577373
40.600000 -84.200000 3.578068
40.900000 -84.200000 3.612707
41.200000 -84.200000 3.584491
41.500000 -84.200000 3.579638
41.800000 -84.200000 3.569472
42.100000 -84.200000 3.560603
42.400000 -84.200000 3.568814
42.700000 -84.200000 3.559434
43.000000 -84.200000 3.583782
43.300000 -84.200000 3.596822
43.600000 -84.200000 3.598977
43.900000 -84.200000 3.599469
44.200000 -84.200000 3.608222
44.500000 -84.200000 3.626661
44.800000 -84.200000 3.643217
45.100000 -84.200000 3.634399
46.300000 -84.200000 3.744253
46.600000 -84.200000 3.705702
29.800000 -83.900000 3.538587
30.100000 -83.900000 3.525822
30.400000 -83.900000 3.551498
30.700000 -83.900000 3.553121
31.000000 -83.900000 3.534924
31.300000 -83.900000 3.568632
31.600000 -83.900000 3.567731
31.900000 -83.900000 3.626073
32.200000 -83.900000 3.676372
32.500000 -83.900000 3.662463
32.800000 -83.900000 3.634979
33.100000 -83.900000 3.634092
33.400000 -83.900000 3.639738
33.700000 -83.900000 3.635393
34.000000 -83.900000 3.613745
34.300000 -83.900000 3.578469
34.600000 -83.900000 3.541846
34.900000 -83.900000 3.512862
35.200000 -83.900000 3.507838
35.500000 -83.900000 3.520489
35.800000 -83.900000 3.517459
36.100000 -83.900000 3.497429
36.400000 -83.900000 3.483361
36.700000 -83.900000 3.508797
37.000000 -83.900000 3.503323
37.300000 -83.900000 3.524793
37.600000 -83.900000 3.542240
37.900000 -83.900000 3.526688
38.200000 -83.900000 3.546145
38.500000 -83.900000 3.539114
38.800000 -83.900000 3.528861
39.100000 -83.900000 3.516654
39.400000 -83.900000 3.571311
39.700000 -83.900000 3.573683
40.000000 -83.900000 3.560031
40.300000 -83.900000 3.572455
40.600000 -83.900000 3.569285
40.900000 -83.900000 3.586639
41.200000 -83.900000 3.576956
41.500000 -83.900000 3.567007
41.800000 -83.900000 3.579412
42.100000 -83.900000 3.566574
42.400000 -83.900000 3.570184
42.700000 -83.900000 3.574781
43.000000 -83.900000 3.588982
43.300000 -83.900000 3.597853
43.600000 -83.900000 3.588117
43.900000 -83.900000 3.600456
44.200000 -83.900000 3.580772
44.500000 -83.900000 3.616316
44.800000 -83.900000 3.659740
45.100000 -83.900000 3.643474
46.600000 -83.900000 3.715343
29.800000 -83.600000 3.538493
30.100000 -83.600000 3.533377
30.400000 -83.600000 3.598083
30.700000 -83.600000 3.608969
31.000000 -83.600000 3.572166
31.300000 -83.600000 3.592999
31.600000 -83.600000 3.578244
31.900000 -83.600000 3.610490
32.200000 -83.600000 3.660635
32.500000 -83.600000 3.660623
32.800000 -83.600000 3.636690
33.100000 -83.600000 3.653553
33.400000 -83.600000 3.662085
33.700000 -83.600000 3.646085
34.000000 -83.600000 3.626613
34.300000 -83.600000 3.591443
34.600000 -83.600000 3.551421
34.900000 -83.600000 3.513447
35.200000 -83.600000 3.502774
35.500000 -83.600000 3.517607
35.800000 -83.600000 3.525617
36.100000 -83.600000 3.518836
36.400000 -83.600000 3.515173
36.700000 -83.600000 3.517578
37.000000 -83.600000 3.519303
37.300000 -83.600000 3.520311
37.600000 -83.600000 3.528283
37.900000 -83.600000 3.520412
38.200000 -83.600000 3.532056
38.500000 -83.600000 3.548147
38.800000 -83.600000 3.543491
39.100000 -83.600000 3.536706
39.400000 -83.600000 3.580726
39.700000 -83.600000 3.587359
40.000000 -83.600000 3.557750
40.300000 -83.600000 3.553844
40.600000 -83.600000 3.565127
40.900000 -83.600000 3.573967
41.200000 -83.600000 3.556811
41.500000 -83.600000 3.564779
41.800000 -83.600000 3.582720
42.100000 -83.600000 3.586240
42.400000 -83.600000 3.583709
42.700000 -83.600000 3.577678
43.000000 -83.600000 3.591148
43.300000 -83.600000 3.601080
43.600000 -83.600000 3.603156
44.200000 -83.600000 3.598463
44.500000 -83.600000 3.606589
45.100000 -83.600000 3.645544
46.300000 -83.600000 3.687722
29.500000 -83.300000 3.567406
29.800000 -83.300000 3.557884
30.100000 -83.300000 3.569424
30.400000 -83.300000 3.610626
30.700000 -83.300000 3.622981
31.000000 -83.300000 3.589896
31.300000 -83.300000 3.606874
31.600000 -83.300000 3.600400
31.900000 -83.300000 3.621410
32.200000 -83.300000 3.659355
32.500000 -83.300000 3.650298
32.800000 -83.300000 3.632507
33.100000 -83.300000 3.659065
33.400000 -83.300000 3.664392
33.700000 -83.300000 3.652462
34.000000 -83.300000 3.626584
34.300000 -83.300000 3.591458
34.600000 -83.300000 3.557126
34.900000 -83.300000 3.520947
35.200000 -83.300000 3.513913
35.500000 -83.300000 3.521886
35.800000 -83.300000 3.522994
36.100000 -83.300000 3.529468
36.400000 -83.300000 3.526939
36.700000 -83.300000 3.526832
37.000000 -83.300000 3.518557
37.300000 -83.300000 3.519844
37.600000 -83.300000 3.536551
37.900000 -83.300000 3.522411
38.200000 -83.300000 3.543619
38.500000 -83.300000 3.569831
38.800000 -83.300000 3.582258
39.100000 -83.300000 3.576192
39.400000 -83.300000 3.599887
39.700000 -83.300000 3.588447
40.000000 -83.300000 3.563443
40.300000 -83.300000 3.555342
40.600000 -83.300000 3.546233
40.900000 -83.300000 3.555676
41.200000 -83.300000 3.544389
41.500000 -83.300000 3.569524
41.800000 -83.300000 3.593979
42.100000 -83.300000 3.615432
42.400000 -83.300000 3.594275
42.700000 -83.300000 3.591176
43.000000 -83.300000 3.593301
43.300000 -83.300000 3.606597
43.900000 -83.300000 3.626033
44.200000 -83.300000 3.581035
45.400000 -83.300000 3.673507
46.300000 -83.300000 3.661962
46.900000 -83.300000 3.706669
29.800000 -83.000000 3.581042
30.100000 -83.000000 3.603090
30.400000 -83.000000 3.604939
30.700000 -83.000000 3.619330
31.000000 -83.000000 3.583466
31.300000 -83.000000 3.600756
31.600000 -83.000000 3.600539
31.900000 -83.000000 3.637010
32.200000 -83.000000 3.653644
32.500000 -83.000000 3.635215
32.800000 -83.000000 3.616697
33.100000 -83.000000 3.654040
33.400000 -83.000000 3.657171
33.700000 -83.000000 3.652467
34.000000 -83.000000 3.630931
35.500000 -83.000000 3.518155
35.800000 -83.000000 3.519821
36.100000 -83.000000 3.533567
36.400000 -83.000000 3.526432
36.700000 -83.000000 3.516716
37.000000 -83.000000 3.503596
37.300000 -83.000000 3.513045
37.600000 -83.000000 3.566642
37.900000 -83.000000 3.529303
38.200000 -83.000000 3.544473
38.500000 -83.000000 3.572608
38.800000 -83.000000 3.582006
39.100000 -83.000000 3.582473
39.400000 -83.000000 3.599637
39.700000 -83.000000 3.600373
40.000000 -83.000000 3.602835
40.300000 -83.000000 3.559796
40.600000 -83.000000 3.547018
40.900000 -83.000000 3.544269
41.200000 -83.000000 3.569556
41.500000 -83.000000 3.578064
41.800000 -83.000000 3.588418
42.100000 -83.000000 3.598177
42.400000 -83.000000 3.603077
42.700000 -83.000000 3.590518
43.000000 -83.000000 3.595282
43.600000 -83.000000 3.613239
43.900000 -83.000000 3.642489
45.400000 -83.000000 3.644018
45.700000 -83.000000 3.632653
46.000000 -83.000000 3.638444
46.300000 -83.000000 3.673711
46.600000 -83.000000 3.714311
46.900000 -83.000000 3.711369
29.200000 -82.700000 3.583675
29.500000 -82.700000 3.583317
29.800000 -82.700000 3.593719
30.100000 -82.700000 3.602729
30.400000 -82.700000 3.610393
30.700000 -82.700000 3.611914
31.000000 -82.700000 3.587190
31.300000 -82.700000 3.626696
31.600000 -82.700000 3.629420
31.900000 -82.700000 3.641417
32.200000 -82.700000 3.656853
32.500000 -82.700000 3.631200
32.800000 -82.700000 3.606821
33.100000 -82.700000 3.640805
33.400000 -82.700000 3.648671
33.700000 -82.700000 3.655407
36.100000 -82.700000 3.526415
36.400000 -82.700000 3.518759
36.700000 -82.700000 3.526412
37.000000 -82.700000 3.513509
37.300000 -82.700000 3.512643
37.600000 -82.700000 3.546507
37.900000 -82.700000 3.526855
38.200000 -82.700000 3.528153
38.500000 -82.700000 3.563038
38.800000 -82.700000 3.566403
39.100000 -82.700000 3.580532
39.400000 -82.700000 3.592789
39.700000 -82.700000 3.599560
40.000000 -82.700000 3.605735
40.300000 -82.700000 3.585805
40.600000 -82.700000 3.555991
40.900000 -82.700000 3.557491
41.200000 -82.700000 3.581711
41.500000 -82.700000 3.584180
41.800000 -82.700000 3.554886
42.700000 -82.700000 3.592491
45.700000 -82.700000 3.640470
46.000000 -82.700000 3.645068
46.300000 -82.700000 3.701847
29.500000 -82.400000 3.576279
29.800000 -82.400000 3.579000
30.100000 -82.400000 3.597646
30.400000 -82.400000 3.614742
30.700000 -82.400000 3.615520
31.000000 -82.400000 3.605017
31.300000 -82.400000 3.655938
31.600000 -82.400000 3.644349
31.900000 -82.400000 3.652758
32.200000 -82.400000 3.653114
32.500000 -82.400000 3.642475
32.800000 -82.400000 3.614373
33.100000 -82.400000 3.627295
34.300000 -82.400000 3.635894
34.600000 -82.400000 3.612470
34.900000 -82.400000 3.583154
36.400000 -82.400000 3.523303
36.700000 -82.400000 3.535394
37.000000 -82.400000 3.535479
37.300000 -82.400000 3.541260
37.600000 -82.400000 3.536731
37.900000 -82.400000 3.525751
38.200000 -82.400000 3.519872
38.500000 -82.400000 3.563124
38.800000 -82.400000 3.569962
39.100000 -82.400000 3.569175
39.400000 -82.400000 3.586589
39.700000 -82.400000 3.603660
40.000000 -82.400000 3.590471
40.300000 -82.400000 3.600963
40.600000 -82.400000 3.605726
40.900000 -82.400000 3.599400
41.200000 -82.400000 3.597838
45.700000 -82.400000 3.647541
46.000000 -82.400000 3.660192
46.300000 -82.400000 3.670215
46.900000 -82.400000 3.709817
27.400000 -82.100000 3.689296
28.000000 -82.100000 3.669738
29.200000 -82.100000 3.607077
29.500000 -82.100000 3.583364
29.800000 -82.100000 3.578393
30.100000 -82.100000 3.580878
30.400000 -82.100000 3.592562
30.700000 -82.100000 3.622810
31.000000 -82.100000 3.658056
31.300000 -82.100000 3.680590
31.600000 -82.100000 3.648001
31.900000 -82.100000 3.650839
32.200000 -82.100000 3.643078
32.500000 -82.100000 3.621351
32.800000 -82.100000 3.609479
33.100000 -82.100000 3.623333
33.700000 -82.100000 3.663749
34.000000 -82.100000 3.666014
34.300000 -82.100000 3.649875
34.600000 -82.100000 3.634149
34.900000 -82.100000 3.603845
35.200000 -82.100000 3.568128
35.500000 -82.100000 3.542607
35.800000 -82.100000 3.539944
36.100000 -82.100000 3.531715
36.400000 -82.100000 3.530609
36.700000 -82.100000 3.552154
37.000000 -82.100000 3.546710
37.300000 -82.100000 3.548806
37.600000 -82.100000 3.557224
37.900000 -82.100000 3.531583
38.200000 -82.100000 3.521969
38.500000 -82.100000 3.547419
38.800000 -82.100000 3.558583
39.100000 -82.100000 3.555077
39.400000 -82.100000 3.555637
39.700000 -82.100000 3.580567
40.000000 -82.100000 3.577853
40.300000 -82.100000 3.586638
40.600000 -82.100000 3.631175
40.900000 -82.100000 3.629801
41.200000 -82.100000 3.632854
45.700000 -82.100000 3.632676
46.300000 -82.100000 3.661881
46.600000 -82.100000 3.657594
46.900000 -82.100000 3.724126
27.400000 -81.800000 3.666670
28.000000 -81.800000 3.739654
29.500000 -81.800000 3.611176
29.800000 -81.800000 3.575441
30.100000 -81.800000 3.582688
30.400000 -81.800000 3.593552
30.700000 -81.800000 3.636654
31.000000 -81.800000 3.673858
31.300000 -81.800000 3.711753
31.600000 -81.800000 3.669810
31.900000 -81.800000 3.652161
32.200000 -81.800000 3.628511
32.500000 -81.800000 3.608307
33.400000 -81.800000 3.655127
33.700000 -81.800000 3.662117
34.000000 -81.800000 3.661266
34.300000 -81.800000 3.658397
34.600000 -81.800000 3.641960
34.900000 -81.800000 3.614208
35.200000 -81.800000 3.573212
35.500000 -81.800000 3.544600
35.800000 -81.800000 3.536216
36.100000 -81.800000 3.526926
36.400000 -81.800000 3.532205
36.700000 -81.800000 3.538275
37.000000 -81.800000 3.545083
37.300000 -81.800000 3.545751
37.600000 -81.800000 3.544122
37.900000 -81.800000 3.530537
38.200000 -81.800000 3.534201
38.500000 -81.800000 3.539828
38.800000 -81.800000 3.537624
39.100000 -81.800000 3.544081
39.400000 -81.800000 3.550418
39.700000 -81.800000 3.563633
40.000000 -81.800000 3.554431
40.300000 -81.800000 3.574925
40.600000 -81.800000 3.595788
40.900000 -81.800000 3.626427
41.200000 -81.800000 3.613724
42.400000 -81.800000 3.630926
42.700000 -81.800000 3.619370
46.900000 -81.800000 3.668663
28.000000 -81.500000 3.664673
29.200000 -81.500000 3.630201
31.300000 -81.500000 3.731797
31.600000 -81.500000 3.694060
31.900000 -81.500000 3.654698
32.200000 -81.500000 3.620593
32.500000 -81.500000 3.604682
33.100000 -81.500000 3.631139
33.400000 -81.500000 3.662150
33.700000 -81.500000 3.649384
34.000000 -81.500000 3.662043
34.300000 -81.500000 3.660825
34.600000 -81.500000 3.644935
34.900000 -81.500000 3.609764
35.200000 -81.500000 3.580278
35.500000 -81.500000 3.553406
35.800000 -81.500000 3.534827
36.100000 -81.500000 3.526518
36.400000 -81.500000 3.526683
36.700000 -81.500000 3.531155
37.000000 -81.500000 3.537969
37.300000 -81.500000 3.544933
37.600000 -81.500000 3.540534
37.900000 -81.500000 3.527136
38.200000 -81.500000 3.515855
38.500000 -81.500000 3.544173
38.800000 -81.500000 3.537908
39.100000 -81.500000 3.540457
39.400000 -81.500000 3.527228
39.700000 -81.500000 3.529933
40.000000 -81.500000 3.529514
40.300000 -81.500000 3.550634
40.600000 -81.500000 3.557735
40.900000 -81.500000 3.577536
41.200000 -81.500000 3.591851
41.500000 -81.500000 3.591453
42.400000 -81.500000 3.612369
42.700000 -81.500000 3.620554
46.900000 -81.500000 3.680281
27.400000 -81.200000 3.637520
28.000000 -81.200000 3.680249
31.600000 -81.200000 3.713543
31.900000 -81.200000 3.659740
32.500000 -81.200000 3.615336
32.800000 -81.200000 3.602509
33.100000 -81.200000 3.644431
33.400000 -81.200000 3.666888
33.700000 -81.200000 3.656288
34.000000 -81.200000 3.649748
34.300000 -81.200000 3.653157
34.600000 -81.200000 3.641532
34.900000 -81.200000 3.606760
35.200000 -81.200000 3.590741
35.500000 -81.200000 3.573007
35.800000 -81.200000 3.550111
36.100000 -81.200000 3.526828
36.400000 -81.200000 3.521595
36.700000 -81.200000 3.525887
37.000000 -81.200000 3.537233
37.300000 -81.200000 3.544807
37.600000 -81.200000 3.538985
37.900000 -81.200000 3.530742
38.200000 -81.200000 3.538878
38.500000 -81.200000 3.552713
38.800000 -81.200000 3.535616
39.100000 -81.200000 3.531376
39.400000 -81.200000 3.518361
39.700000 -81.200000 3.512592
40.000000 -81.200000 3.538223
40.300000 -81.200000 3.537268
40.600000 -81.200000 3.549256
40.900000 -81.200000 3.551902
41.200000 -81.200000 3.581586
41.500000 -81.200000 3.594314
41.800000 -81.200000 3.585728
42.400000 -81.200000 3.598519
43.600000 -81.200000 3.610216
46.900000 -81.200000 3.676110
27.100000 -80.900000 3.654276
32.500000 -80.900000 3.615243
32.800000 -80.900000 3.609073
33.100000 -80.900000 3.639356
33.400000 -80.900000 3.659306
33.700000 -80.900000 3.662514
34.000000 -80.900000 3.653431
34.300000 -80.900000 3.654590
34.600000 -80.900000 3.643646
34.900000 -80.900000 3.616291
35.200000 -80.900000 3.601659
35.500000 -80.900000 3.600334
35.800000 -80.900000 3.569716
36.100000 -80.900000 3.536338
36.400000 -80.900000 3.521818
36.700000 -80.900000 3.532341
37.000000 -80.900000 3.538597
37.300000 -80.900000 3.543363
37.600000 -80.900000 3.533683
37.900000 -80.900000 3.536340
38.200000 -80.900000 3.543675
38.500000 -80.900000 3.545199
38.800000 -80.900000 3.546924
39.100000 -80.900000 3.530132
39.400000 -80.900000 3.508223
39.700000 -80.900000 3.517535
40.000000 -80.900000 3.538519
40.300000 -80.900000 3.550824
40.600000 -80.900000 3.548753
40.900000 -80.900000 3.544943
41.200000 -80.900000 3.571042
41.500000 -80.900000 3.576729
42.100000 -80.900000 3.579149
42.400000 -80.900000 3.584694
42.700000 -80.900000 3.591876
46.300000 -80.900000 3.638547
32.800000 -80.600000 3.596386
33.100000 -80.600000 3.642349
33.400000 -80.600000 3.662055
33.700000 -80.600000 3.665378
34.000000 -80.600000 3.674348
34.300000 -80.600000 3.646378
34.600000 -80.600000 3.650984
34.900000 -80.600000 3.649815
35.200000 -80.600000 3.636657
35.500000 -80.600000 3.617290
35.800000 -80.600000 3.605347
36.100000 -80.600000 3.562701
36.400000 -80.600000 3.541113
36.700000 -80.600000 3.544174
37.000000 -80.600000 3.545749
37.300000 -80.600000 3.555764
37.600000 -80.600000 3.539917
37.900000 -80.600000 3.540706
38.200000 -80.600000 3.529012
38.500000 -80.600000 3.551402
38.800000 -80.600000 3.558650
39.100000 -80.600000 3.536651
39.400000 -80.600000 3.526889
39.700000 -80.600000 3.527819
40.000000 -80.600000 3.543026
40.300000 -80.600000 3.545030
40.600000 -80.600000 3.545152
40.900000 -80.600000 3.554100
41.200000 -80.600000 3.574902
41.500000 -80.600000 3.575448
41.800000 -80.600000 3.572953
42.100000 -80.600000 3.564130
42.400000 -80.600000 3.561165
42.700000 -80.600000 3.562073
43.000000 -80.600000 3.594285
46.300000 -80.600000 3.632822
32.500000 -80.300000 3.618925
32.800000 -80.300000 3.604576
33.100000 -80.300000 3.642577
33.400000 -80.300000 3.660212
33.700000 -80.300000 3.679969
34.000000 -80.300000 3.671935
34.300000 -80.300000 3.648162
34.600000 -80.300000 3.652490
34.900000 -80.300000 3.661876
35.200000 -80.300000 3.661969
35.500000 -80.300000 3.649348
35.800000 -80.300000 3.628434
36.100000 -80.300000 3.595829
36.400000 -80.300000 3.560615
36.700000 -80.300000 3.549382
37.000000 -80.300000 3.554417
37.300000 -80.300000 3.564381
37.600000 -80.300000 3.548284
37.900000 -80.300000 3.522230
38.200000 -80.300000 3.548576
38.500000 -80.300000 3.554416
38.800000 -80.300000 3.556736
39.100000 -80.300000 3.542997
39.400000 -80.300000 3.546578
39.700000 -80.300000 3.554730
40.000000 -80.300000 3.560014
40.300000 -80.300000 3.533675
40.600000 -80.300000 3.529772
40.900000 -80.300000 3.545805
41.200000 -80.300000 3.574022
41.500000 -80.300000 3.553304
41.800000 -80.300000 3.553492
