37.300000 -120.500000 3.999076
37.600000 -120.500000 3.993387
37.900000 -120.500000 3.985191
38.200000 -120.500000 3.980386
38.500000 -120.500000 3.976752
38.800000 -120.500000 3.976321
39.100000 -120.500000 3.979263
39.400000 -120.500000 3.984637
39.700000 -120.500000 3.991379
40.000000 -120.500000 3.992643
40.300000 -120.500000 3.988755
40.600000 -120.500000 3.978286
40.900000 -120.500000 3.967558
41.200000 -120.500000 3.956231
41.500000 -120.500000 3.948512
41.800000 -120.500000 3.945219
42.100000 -120.500000 3.945993
42.400000 -120.500000 3.949986
42.700000 -120.500000 3.956936
43.000000 -120.500000 3.964730
43.300000 -120.500000 3.971110
43.600000 -120.500000 3.976858
43.900000 -120.500000 3.982073
44.200000 -120.500000 3.989186
44.500000 -120.500000 3.996035
44.800000 -120.500000 4.000498
45.100000 -120.500000 4.002699
45.400000 -120.500000 4.003743
45.700000 -120.500000 4.005614
46.000000 -120.500000 4.008425
46.300000 -120.500000 4.013749
46.600000 -120.500000 4.022849
46.900000 -120.500000 4.035318
47.200000 -120.500000 4.048529
47.500000 -120.500000 4.059913
47.800000 -120.500000 4.066370
48.100000 -120.500000 4.068904
48.400000 -120.500000 4.069631
48.700000 -120.500000 4.068046
49.000000 -120.500000 4.063902
34.600000 -120.200000 3.994187
34.900000 -120.200000 4.002216
35.200000 -120.200000 4.009041
35.500000 -120.200000 4.014551
35.800000 -120.200000 4.016937
36.100000 -120.200000 4.011748
36.400000 -120.200000 4.008032
36.700000 -120.200000 4.002792
37.000000 -120.200000 3.995617
37.300000 -120.200000 3.989341
37.600000 -120.200000 3.983064
37.900000 -120.200000 3.975075
38.200000 -120.200000 3.971181
38.500000 -120.200000 3.968392
38.800000 -120.200000 3.968984
39.100000 -120.200000 3.970822
39.400000 -120.200000 3.976233
39.700000 -120.200000 3.980899
40.000000 -120.200000 3.980812
40.300000 -120.200000 3.976756
40.600000 -120.200000 3.969038
40.900000 -120.200000 3.960111
41.200000 -120.200000 3.951228
41.500000 -120.200000 3.945783
41.800000 -120.200000 3.943960
42.100000 -120.200000 3.945366
42.400000 -120.200000 3.949260
42.700000 -120.200000 3.955000
43.000000 -120.200000 3.963027
43.300000 -120.200000 3.969233
43.600000 -120.200000 3.974545
43.900000 -120.200000 3.979851
44.200000 -120.200000 3.986966
44.500000 -120.200000 3.994333
44.800000 -120.200000 3.999957
45.100000 -120.200000 4.003821
45.400000 -120.200000 4.007110
45.700000 -120.200000 4.010351
46.000000 -120.200000 4.014246
46.300000 -120.200000 4.020835
46.600000 -120.200000 4.031055
46.900000 -120.200000 4.043665
47.200000 -120.200000 4.056704
47.500000 -120.200000 4.066724
47.800000 -120.200000 4.072556
48.100000 -120.200000 4.074302
48.400000 -120.200000 4.074089
48.700000 -120.200000 4.071440
33.700000 -119.900000 3.990122
34.000000 -119.900000 3.981536
34.300000 -119.900000 3.980284
34.600000 -119.900000 3.979570
34.900000 -119.900000 3.992083
35.200000 -119.900000 4.000784
35.500000 -119.900000 4.009670
35.800000 -119.900000 4.009206
36.100000 -119.900000 4.008526
36.400000 -119.900000 4.003101
36.700000 -119.900000 3.997538
37.000000 -119.900000 3.987253
37.300000 -119.900000 3.977715
37.600000 -119.900000 3.970096
37.900000 -119.900000 3.963190
38.200000 -119.900000 3.960450
38.500000 -119.900000 3.960359
38.800000 -119.900000 3.962567
39.100000 -119.900000 3.965212
39.400000 -119.900000 3.970790
39.700000 -119.900000 3.973884
40.000000 -119.900000 3.973898
40.300000 -119.900000 3.970447
40.600000 -119.900000 3.964469
40.900000 -119.900000 3.957218
41.200000 -119.900000 3.950451
41.500000 -119.900000 3.946073
41.800000 -119.900000 3.944630
42.100000 -119.900000 3.945838
42.400000 -119.900000 3.950115
42.700000 -119.900000 3.955997
43.000000 -119.900000 3.963019
43.300000 -119.900000 3.969168
43.600000 -119.900000 3.974788
43.900000 -119.900000 3.980411
44.200000 -119.900000 3.987334
44.500000 -119.900000 3.994993
44.800000 -119.900000 4.002019
45.100000 -119.900000 4.007640
45.400000 -119.900000 4.012918
45.700000 -119.900000 4.018214
46.000000 -119.900000 4.023776
46.300000 -119.900000 4.031204
46.600000 -119.900000 4.041747
46.900000 -119.900000 4.054407
47.200000 -119.900000 4.066271
47.500000 -119.900000 4.074727
47.800000 -119.900000 4.078959
48.100000 -119.900000 4.080080
48.400000 -119.900000 4.077679
48.700000 -119.900000 4.074884
33.100000 -119.600000 4.004074
33.400000 -119.600000 4.000363
33.700000 -119.600000 3.999058
34.000000 -119.600000 3.994866
34.300000 -119.600000 3.987843
34.600000 -119.600000 3.985543
34.900000 -119.600000 3.991438
35.200000 -119.600000 4.002526
35.500000 -119.600000 4.009890
35.800000 -119.600000 4.014350
36.100000 -119.600000 4.013869
36.400000 -119.600000 4.005629
36.700000 -119.600000 3.995207
37.000000 -119.600000 3.983122
37.300000 -119.600000 3.967389
37.600000 -119.600000 3.956405
37.900000 -119.600000 3.951321
38.200000 -119.600000 3.949914
38.500000 -119.600000 3.953050
38.800000 -119.600000 3.957273
39.100000 -119.600000 3.961368
39.400000 -119.600000 3.966965
39.700000 -119.600000 3.970883
40.000000 -119.600000 3.970955
40.300000 -119.600000 3.968440
40.600000 -119.600000 3.963587
40.900000 -119.600000 3.958468
41.200000 -119.600000 3.952945
41.500000 -119.600000 3.948915
41.800000 -119.600000 3.947729
42.100000 -119.600000 3.948835
42.400000 -119.600000 3.952150
42.700000 -119.600000 3.957422
43.000000 -119.600000 3.964170
43.300000 -119.600000 3.970013
43.600000 -119.600000 3.975897
43.900000 -119.600000 3.982161
44.200000 -119.600000 3.989052
44.500000 -119.600000 3.997081
44.800000 -119.600000 4.005579
45.100000 -119.600000 4.013882
45.400000 -119.600000 4.021475
45.700000 -119.600000 4.028334
46.000000 -119.600000 4.035484
46.300000 -119.600000 4.043743
46.600000 -119.600000 4.053742
46.900000 -119.600000 4.065270
47.200000 -119.600000 4.075575
47.500000 -119.600000 4.082269
47.800000 -119.600000 4.084654
48.100000 -119.600000 4.083914
48.400000 -119.600000 4.081147
48.700000 -119.600000 4.077441
33.100000 -119.300000 4.005357
33.400000 -119.300000 4.004717
33.700000 -119.300000 4.006841
34.000000 -119.300000 4.006018
34.300000 -119.300000 4.001551
34.600000 -119.300000 4.001052
34.900000 -119.300000 4.002668
35.200000 -119.300000 4.012568
35.500000 -119.300000 4.024440
35.800000 -119.300000 4.030868
36.100000 -119.300000 4.027330
36.400000 -119.300000 4.017242
36.700000 -119.300000 3.999638
37.000000 -119.300000 3.977977
37.300000 -119.300000 3.959399
37.600000 -119.300000 3.945336
37.900000 -119.300000 3.940806
38.200000 -119.300000 3.940079
38.500000 -119.300000 3.945924
38.800000 -119.300000 3.952430
39.100000 -119.300000 3.958909
39.400000 -119.300000 3.966120
39.700000 -119.300000 3.970608
40.000000 -119.300000 3.971503
40.300000 -119.300000 3.969357
40.600000 -119.300000 3.965681
40.900000 -119.300000 3.961340
41.200000 -119.300000 3.957159
41.500000 -119.300000 3.953894
41.800000 -119.300000 3.952368
42.100000 -119.300000 3.952865
42.400000 -119.300000 3.955077
42.700000 -119.300000 3.959180
43.000000 -119.300000 3.964741
43.300000 -119.300000 3.970073
43.600000 -119.300000 3.976647
43.900000 -119.300000 3.983812
44.200000 -119.300000 3.991804
44.500000 -119.300000 4.001008
44.800000 -119.300000 4.011104
45.100000 -119.300000 4.021724
45.400000 -119.300000 4.031409
45.700000 -119.300000 4.039956
46.000000 -119.300000 4.048032
46.300000 -119.300000 4.056431
46.600000 -119.300000 4.065386
46.900000 -119.300000 4.075023
47.200000 -119.300000 4.083136
47.500000 -119.300000 4.088285
47.800000 -119.300000 4.088877
48.100000 -119.300000 4.087225
48.400000 -119.300000 4.084813
48.700000 -119.300000 4.080852
33.100000 -119.000000 4.005587
33.400000 -119.000000 4.007648
33.700000 -119.000000 4.013135
34.000000 -119.000000 4.015723
34.300000 -119.000000 4.018149
34.600000 -119.000000 4.021864
34.900000 -119.000000 4.027842
35.200000 -119.000000 4.037808
35.500000 -119.000000 4.048597
35.800000 -119.000000 4.051926
36.100000 -119.000000 4.047932
36.400000 -119.000000 4.031740
36.700000 -119.000000 4.006137
37.000000 -119.000000 3.977844
37.300000 -119.000000 3.955411
37.600000 -119.000000 3.938876
37.900000 -119.000000 3.933152
38.200000 -119.000000 3.933789
38.500000 -119.000000 3.940896
38.800000 -119.000000 3.949909
39.100000 -119.000000 3.958738
39.400000 -119.000000 3.968073
39.700000 -119.000000 3.973498
40.000000 -119.000000 3.974693
40.300000 -119.000000 3.972909
40.600000 -119.000000 3.969147
40.900000 -119.000000 3.964895
41.200000 -119.000000 3.960818
41.500000 -119.000000 3.958274
41.800000 -119.000000 3.956753
42.100000 -119.000000 3.956812
42.400000 -119.000000 3.958266
42.700000 -119.000000 3.960709
43.000000 -119.000000 3.964719
43.300000 -119.000000 3.969917
43.600000 -119.000000 3.977197
43.900000 -119.000000 3.985867
44.200000 -119.000000 3.995304
44.500000 -119.000000 4.005966
44.800000 -119.000000 4.018066
45.100000 -119.000000 4.030732
45.400000 -119.000000 4.042087
45.700000 -119.000000 4.051910
46.000000 -119.000000 4.060682
46.300000 -119.000000 4.068591
46.600000 -119.000000 4.076142
46.900000 -119.000000 4.083218
47.200000 -119.000000 4.089120
47.500000 -119.000000 4.092627
47.800000 -119.000000 4.092584
48.100000 -119.000000 4.090311
48.400000 -119.000000 4.087633
48.700000 -119.000000 4.084561
32.800000 -118.700000 4.001483
33.100000 -118.700000 4.002842
33.400000 -118.700000 4.008403
33.700000 -118.700000 4.018323
34.000000 -118.700000 4.028902
34.300000 -118.700000 4.037424
34.600000 -118.700000 4.044924
34.900000 -118.700000 4.056865
35.200000 -118.700000 4.066105
35.500000 -118.700000 4.069789
35.800000 -118.700000 4.071533
36.100000 -118.700000 4.064263
36.400000 -118.700000 4.043691
36.700000 -118.700000 4.010598
37.000000 -118.700000 3.978590
37.300000 -118.700000 3.953731
37.600000 -118.700000 3.937055
37.900000 -118.700000 3.931280
38.200000 -118.700000 3.934153
38.500000 -118.700000 3.941833
38.800000 -118.700000 3.952742
39.100000 -118.700000 3.963162
39.400000 -118.700000 3.972841
39.700000 -118.700000 3.978604
40.000000 -118.700000 3.979497
40.300000 -118.700000 3.976888
40.600000 -118.700000 3.972394
40.900000 -118.700000 3.968152
41.200000 -118.700000 3.963600
41.500000 -118.700000 3.960517
41.800000 -118.700000 3.959194
42.100000 -118.700000 3.958776
42.400000 -118.700000 3.959675
42.700000 -118.700000 3.961566
43.000000 -118.700000 3.965103
43.300000 -118.700000 3.970455
43.600000 -118.700000 3.978492
43.900000 -118.700000 3.988282
44.200000 -118.700000 3.999403
44.500000 -118.700000 4.011482
44.800000 -118.700000 4.025549
45.100000 -118.700000 4.039871
45.400000 -118.700000 4.052742
45.700000 -118.700000 4.063409
46.000000 -118.700000 4.072413
46.300000 -118.700000 4.079591
46.600000 -118.700000 4.085734
46.900000 -118.700000 4.090207
47.200000 -118.700000 4.093971
47.500000 -118.700000 4.096024
47.800000 -118.700000 4.095586
48.100000 -118.700000 4.093474
48.400000 -118.700000 4.090986
48.700000 -118.700000 4.087018
32.800000 -118.400000 3.990892
33.100000 -118.400000 3.996036
33.400000 -118.400000 4.005439
33.700000 -118.400000 4.019885
34.000000 -118.400000 4.037361
34.300000 -118.400000 4.051855
34.600000 -118.400000 4.064878
34.900000 -118.400000 4.076141
35.200000 -118.400000 4.083852
35.500000 -118.400000 4.083673
35.800000 -118.400000 4.079330
36.100000 -118.400000 4.066052
36.400000 -118.400000 4.041898
36.700000 -118.400000 4.007777
37.000000 -118.400000 3.975374
37.300000 -118.400000 3.951940
37.600000 -118.400000 3.939292
37.900000 -118.400000 3.935698
38.200000 -118.400000 3.939737
38.500000 -118.400000 3.948535
38.800000 -118.400000 3.959890
39.100000 -118.400000 3.970418
39.400000 -118.400000 3.979356
39.700000 -118.400000 3.984286
40.000000 -118.400000 3.984105
40.300000 -118.400000 3.980551
40.600000 -118.400000 3.975310
40.900000 -118.400000 3.970642
41.200000 -118.400000 3.964941
41.500000 -118.400000 3.960963
41.800000 -118.400000 3.958891
42.100000 -118.400000 3.958394
42.400000 -118.400000 3.959322
42.700000 -118.400000 3.961675
43.000000 -118.400000 3.966047
43.300000 -118.400000 3.972539
43.600000 -118.400000 3.981595
43.900000 -118.400000 3.992503
44.200000 -118.400000 4.004681
44.500000 -118.400000 4.017984
44.800000 -118.400000 4.033066
45.100000 -118.400000 4.048232
45.400000 -118.400000 4.062020
45.700000 -118.400000 4.073673
46.000000 -118.400000 4.082541
46.300000 -118.400000 4.088933
46.600000 -118.400000 4.093080
46.900000 -118.400000 4.095743
47.200000 -118.400000 4.097962
47.500000 -118.400000 4.099499
47.800000 -118.400000 4.098805
48.100000 -118.400000 4.097198
48.400000 -118.400000 4.094444
48.700000 -118.400000 4.090535
32.800000 -118.100000 3.979101
33.100000 -118.100000 3.986684
33.400000 -118.100000 3.998824
33.700000 -118.100000 4.016307
34.000000 -118.100000 4.037868
34.300000 -118.100000 4.056816
34.600000 -118.100000 4.071959
34.900000 -118.100000 4.082492
35.200000 -118.100000 4.087034
35.500000 -118.100000 4.082877
35.800000 -118.100000 4.072089
36.100000 -118.100000 4.054607
36.400000 -118.100000 4.028083
36.700000 -118.100000 3.994594
37.000000 -118.100000 3.967105
37.300000 -118.100000 3.950756
37.600000 -118.100000 3.943084
37.900000 -118.100000 3.943394
38.200000 -118.100000 3.949869
38.500000 -118.100000 3.958953
38.800000 -118.100000 3.969639
39.100000 -118.100000 3.979159
39.400000 -118.100000 3.986619
39.700000 -118.100000 3.990242
40.000000 -118.100000 3.988142
40.300000 -118.100000 3.983238
40.600000 -118.100000 3.976925
40.900000 -118.100000 3.971499
41.200000 -118.100000 3.965047
41.500000 -118.100000 3.959689
41.800000 -118.100000 3.956607
42.100000 -118.100000 3.956165
42.400000 -118.100000 3.957773
42.700000 -118.100000 3.961480
43.000000 -118.100000 3.968139
43.300000 -118.100000 3.976329
43.600000 -118.100000 3.986380
43.900000 -118.100000 3.998192
44.200000 -118.100000 4.010718
44.500000 -118.100000 4.024833
44.800000 -118.100000 4.040201
45.100000 -118.100000 4.055530
45.400000 -118.100000 4.069596
45.700000 -118.100000 4.081795
46.000000 -118.100000 4.090848
46.300000 -118.100000 4.096665
46.600000 -118.100000 4.099655
46.900000 -118.100000 4.101403
47.200000 -118.100000 4.103031
47.500000 -118.100000 4.103884
47.800000 -118.100000 4.102832
48.100000 -118.100000 4.101349
48.400000 -118.100000 4.098693
48.700000 -118.100000 4.094983
32.800000 -117.800000 3.973328
33.100000 -117.800000 3.981282
33.400000 -117.800000 3.992660
33.700000 -117.800000 4.009723
34.000000 -117.800000 4.031121
34.300000 -117.800000 4.050316
34.600000 -117.800000 4.063854
34.900000 -117.800000 4.071840
35.200000 -117.800000 4.072560
35.500000 -117.800000 4.065475
35.800000 -117.800000 4.050041
36.100000 -117.800000 4.029968
36.400000 -117.800000 4.000907
36.700000 -117.800000 3.972801
37.000000 -117.800000 3.956064
37.300000 -117.800000 3.948052
37.600000 -117.800000 3.947153
37.900000 -117.800000 3.952464
38.200000 -117.800000 3.960749
38.500000 -117.800000 3.969677
38.800000 -117.800000 3.978827
39.100000 -117.800000 3.986588
39.400000 -117.800000 3.992736
39.700000 -117.800000 3.995174
40.000000 -117.800000 3.991536
40.300000 -117.800000 3.985505
40.600000 -117.800000 3.978098
40.900000 -117.800000 3.971698
41.200000 -117.800000 3.964657
41.500000 -117.800000 3.958863
41.800000 -117.800000 3.955481
42.100000 -117.800000 3.955123
42.400000 -117.800000 3.957331
42.700000 -117.800000 3.962697
43.000000 -117.800000 3.971555
43.300000 -117.800000 3.981345
43.600000 -117.800000 3.992470
43.900000 -117.800000 4.004506
44.200000 -117.800000 4.017065
44.500000 -117.800000 4.031366
44.800000 -117.800000 4.046460
45.100000 -117.800000 4.061672
45.400000 -117.800000 4.075864
45.700000 -117.800000 4.088220
46.000000 -117.800000 4.097324
46.300000 -117.800000 4.103293
46.600000 -117.800000 4.105919
46.900000 -117.800000 4.107754
47.200000 -117.800000 4.109620
47.500000 -117.800000 4.109978
47.800000 -117.800000 4.108599
48.100000 -117.800000 4.106598
48.400000 -117.800000 4.104058
48.700000 -117.800000 4.100541
32.800000 -117.500000 3.974684
33.100000 -117.500000 3.979809
33.400000 -117.500000 3.989111
33.700000 -117.500000 4.003043
34.000000 -117.500000 4.020718
34.300000 -117.500000 4.035946
34.600000 -117.500000 4.045972
34.900000 -117.500000 4.048318
35.200000 -117.500000 4.043592
35.500000 -117.500000 4.032956
35.800000 -117.500000 4.016620
36.100000 -117.500000 3.994047
36.400000 -117.500000 3.970606
36.700000 -117.500000 3.952384
37.000000 -117.500000 3.945510
37.300000 -117.500000 3.946478
37.600000 -117.500000 3.951860
37.900000 -117.500000 3.960955
38.200000 -117.500000 3.971505
38.500000 -117.500000 3.979466
38.800000 -117.500000 3.987205
39.100000 -117.500000 3.993187
39.400000 -117.500000 3.997622
39.700000 -117.500000 3.998822
40.000000 -117.500000 3.994276
40.300000 -117.500000 3.986894
40.600000 -117.500000 3.978369
40.900000 -117.500000 3.971239
41.200000 -117.500000 3.963828
41.500000 -117.500000 3.958519
41.800000 -117.500000 3.955554
42.100000 -117.500000 3.955338
42.400000 -117.500000 3.958937
42.700000 -117.500000 3.965390
43.000000 -117.500000 3.976035
43.300000 -117.500000 3.987147
43.600000 -117.500000 3.999051
43.900000 -117.500000 4.011042
44.200000 -117.500000 4.023946
44.500000 -117.500000 4.037787
44.800000 -117.500000 4.052518
45.100000 -117.500000 4.067347
45.400000 -117.500000 4.081755
45.700000 -117.500000 4.093828
46.000000 -117.500000 4.102962
46.300000 -117.500000 4.108585
46.600000 -117.500000 4.112082
46.900000 -117.500000 4.114656
47.200000 -117.500000 4.116607
47.500000 -117.500000 4.116980
47.800000 -117.500000 4.115352
48.100000 -117.500000 4.112385
48.400000 -117.500000 4.109636
48.700000 -117.500000 4.106811
32.800000 -117.200000 3.975955
33.100000 -117.200000 3.978636
33.400000 -117.200000 3.986067
33.700000 -117.200000 3.996159
34.000000 -117.200000 4.009361
34.300000 -117.200000 4.020042
34.600000 -117.200000 4.024029
34.900000 -117.200000 4.020915
35.200000 -117.200000 4.010761
35.500000 -117.200000 3.996930
35.800000 -117.200000 3.980378
36.100000 -117.200000 3.962510
36.400000 -117.200000 3.946548
36.700000 -117.200000 3.938155
37.000000 -117.200000 3.939470
37.300000 -117.200000 3.947804
37.600000 -117.200000 3.957993
37.900000 -117.200000 3.970081
38.200000 -117.200000 3.981109
38.500000 -117.200000 3.987947
38.800000 -117.200000 3.994321
39.100000 -117.200000 3.998865
39.400000 -117.200000 4.001471
39.700000 -117.200000 4.001425
40.000000 -117.200000 3.995756
40.300000 -117.200000 3.987677
40.600000 -117.200000 3.978274
40.900000 -117.200000 3.970821
41.200000 -117.200000 3.963354
41.500000 -117.200000 3.958547
41.800000 -117.200000 3.956945
42.100000 -117.200000 3.957809
42.400000 -117.200000 3.962139
42.700000 -117.200000 3.969934
43.000000 -117.200000 3.981485
43.300000 -117.200000 3.993177
43.600000 -117.200000 4.006144
43.900000 -117.200000 4.018276
44.200000 -117.200000 4.031041
44.500000 -117.200000 4.044516
44.800000 -117.200000 4.059182
45.100000 -117.200000 4.073728
45.400000 -117.200000 4.087535
45.700000 -117.200000 4.099185
46.000000 -117.200000 4.108091
46.300000 -117.200000 4.113543
46.600000 -117.200000 4.117668
46.900000 -117.200000 4.120615
47.200000 -117.200000 4.122858
47.500000 -117.200000 4.123666
47.800000 -117.200000 4.121543
48.100000 -117.200000 4.117531
48.400000 -117.200000 4.114524
48.700000 -117.200000 4.112692
32.500000 -116.900000 3.984196
32.800000 -116.900000 3.977075
33.100000 -116.900000 3.976350
33.400000 -116.900000 3.980406
33.700000 -116.900000 3.988969
34.000000 -116.900000 3.999312
34.300000 -116.900000 4.005051
34.600000 -116.900000 4.003629
34.900000 -116.900000 3.997014
35.200000 -116.900000 3.984377
35.500000 -116.900000 3.968608
35.800000 -116.900000 3.954416
36.100000 -116.900000 3.942794
36.400000 -116.900000 3.933529
36.700000 -116.900000 3.932675
37.000000 -116.900000 3.939482
37.300000 -116.900000 3.951494
37.600000 -116.900000 3.963675
37.900000 -116.900000 3.977431
38.200000 -116.900000 3.987710
38.500000 -116.900000 3.993724
38.800000 -116.900000 3.999131
39.100000 -116.900000 4.002484
39.400000 -116.900000 4.003025
39.700000 -116.900000 4.001668
40.000000 -116.900000 3.995101
40.300000 -116.900000 3.987070
40.600000 -116.900000 3.977834
40.900000 -116.900000 3.970818
41.200000 -116.900000 3.964297
41.500000 -116.900000 3.960378
41.800000 -116.900000 3.959496
42.100000 -116.900000 3.961555
42.400000 -116.900000 3.966698
42.700000 -116.900000 3.975461
43.000000 -116.900000 3.987145
43.300000 -116.900000 3.999245
43.600000 -116.900000 4.012949
43.900000 -116.900000 4.025774
44.200000 -116.900000 4.038561
44.500000 -116.900000 4.051882
44.800000 -116.900000 4.065839
45.100000 -116.900000 4.079926
45.400000 -116.900000 4.092976
45.700000 -116.900000 4.104891
46.000000 -116.900000 4.115208
46.300000 -116.900000 4.122153
46.600000 -116.900000 4.126144
46.900000 -116.900000 4.127686
47.200000 -116.900000 4.128024
47.500000 -116.900000 4.128234
47.800000 -116.900000 4.125191
48.100000 -116.900000 4.121322
48.400000 -116.900000 4.118749
48.700000 -116.900000 4.117145
32.500000 -116.600000 3.983599
32.800000 -116.600000 3.975811
33.100000 -116.600000 3.975076
33.400000 -116.600000 3.976584
33.700000 -116.600000 3.982149
34.000000 -116.600000 3.987454
34.300000 -116.600000 3.988825
34.600000 -116.600000 3.985442
34.900000 -116.600000 3.977467
35.200000 -116.600000 3.966679
35.500000 -116.600000 3.954938
35.800000 -116.600000 3.944850
36.100000 -116.600000 3.936861
36.400000 -116.600000 3.933341
36.700000 -116.600000 3.935932
37.000000 -116.600000 3.944561
37.300000 -116.600000 3.956946
37.600000 -116.600000 3.970420
37.900000 -116.600000 3.982591
38.200000 -116.600000 3.991752
38.500000 -116.600000 3.996818
38.800000 -116.600000 4.001130
39.100000 -116.600000 4.003550
39.400000 -116.600000 4.003103
39.700000 -116.600000 4.000291
40.000000 -116.600000 3.993196
40.300000 -116.600000 3.985683
40.600000 -116.600000 3.977559
40.900000 -116.600000 3.971802
41.200000 -116.600000 3.966232
41.500000 -116.600000 3.963439
41.800000 -116.600000 3.963038
42.100000 -116.600000 3.965761
42.400000 -116.600000 3.971352
42.700000 -116.600000 3.980387
43.000000 -116.600000 3.992056
43.300000 -116.600000 4.004484
43.600000 -116.600000 4.018766
43.900000 -116.600000 4.032272
44.200000 -116.600000 4.044917
44.500000 -116.600000 4.057834
44.800000 -116.600000 4.070879
45.100000 -116.600000 4.083647
45.400000 -116.600000 4.096719
45.700000 -116.600000 4.110905
46.000000 -116.600000 4.122207
46.300000 -116.600000 4.129110
46.600000 -116.600000 4.133046
46.900000 -116.600000 4.133366
47.200000 -116.600000 4.130807
47.500000 -116.600000 4.128230
47.800000 -116.600000 4.125127
48.100000 -116.600000 4.122189
48.400000 -116.600000 4.120682
48.700000 -116.600000 4.118982
32.500000 -116.300000 3.980703
32.800000 -116.300000 3.974979
33.100000 -116.300000 3.974262
33.400000 -116.300000 3.972876
33.700000 -116.300000 3.972806
34.000000 -116.300000 3.973119
34.300000 -116.300000 3.971265
34.600000 -116.300000 3.968233
34.900000 -116.300000 3.962910
35.200000 -116.300000 3.958519
35.500000 -116.300000 3.952082
35.800000 -116.300000 3.946483
36.100000 -116.300000 3.942884
36.400000 -116.300000 3.941820
36.700000 -116.300000 3.944767
37.000000 -116.300000 3.952908
37.300000 -116.300000 3.963804
37.600000 -116.300000 3.974631
37.900000 -116.300000 3.984926
38.200000 -116.300000 3.992577
38.500000 -116.300000 3.996714
38.800000 -116.300000 4.000439
39.100000 -116.300000 4.002761
39.400000 -116.300000 4.002214
39.700000 -116.300000 3.998766
40.000000 -116.300000 3.991491
40.300000 -116.300000 3.984363
40.600000 -116.300000 3.977149
40.900000 -116.300000 3.972554
41.200000 -116.300000 3.967850
41.500000 -116.300000 3.965434
41.800000 -116.300000 3.965437
42.100000 -116.300000 3.967985
42.400000 -116.300000 3.973730
42.700000 -116.300000 3.983048
43.000000 -116.300000 3.994762
43.300000 -116.300000 4.007365
43.600000 -116.300000 4.022226
43.900000 -116.300000 4.036272
44.200000 -116.300000 4.048849
44.500000 -116.300000 4.061033
44.800000 -116.300000 4.072918
45.100000 -116.300000 4.084836
45.400000 -116.300000 4.097866
45.700000 -116.300000 4.112292
46.000000 -116.300000 4.123927
46.300000 -116.300000 4.130486
46.600000 -116.300000 4.133607
46.900000 -116.300000 4.132054
47.200000 -116.300000 4.126929
47.500000 -116.300000 4.122453
47.800000 -116.300000 4.119640
48.100000 -116.300000 4.118314
48.400000 -116.300000 4.118455
48.700000 -116.300000 4.117832
32.500000 -116.000000 3.978095
32.800000 -116.000000 3.976217
33.100000 -116.000000 3.975914
33.400000 -116.000000 3.971398
33.700000 -116.000000 3.964773
34.000000 -116.000000 3.961192
34.300000 -116.000000 3.957620
34.600000 -116.000000 3.953773
34.900000 -116.000000 3.953153
35.200000 -116.000000 3.955351
35.500000 -116.000000 3.956035
35.800000 -116.000000 3.955137
36.100000 -116.000000 3.954100
36.400000 -116.000000 3.953559
36.700000 -116.000000 3.956104
37.000000 -116.000000 3.961690
37.300000 -116.000000 3.968538
37.600000 -116.000000 3.975974
37.900000 -116.000000 3.984343
38.200000 -116.000000 3.990699
38.500000 -116.000000 3.994393
38.800000 -116.000000 3.997940
39.100000 -116.000000 4.000117
39.400000 -116.000000 3.999995
39.700000 -116.000000 3.996853
40.000000 -116.000000 3.989953
40.300000 -116.000000 3.983415
40.600000 -116.000000 3.977288
40.900000 -116.000000 3.972816
41.200000 -116.000000 3.968659
41.500000 -116.000000 3.966358
41.800000 -116.000000 3.966070
42.100000 -116.000000 3.968235
42.400000 -116.000000 3.973518
42.700000 -116.000000 3.982450
43.000000 -116.000000 3.994360
43.300000 -116.000000 4.007194
43.600000 -116.000000 4.022420
43.900000 -116.000000 4.036646
44.200000 -116.000000 4.049352
44.500000 -116.000000 4.061240
44.800000 -116.000000 4.072197
45.100000 -116.000000 4.083556
45.400000 -116.000000 4.097488
45.700000 -116.000000 4.110934
46.000000 -116.000000 4.121325
46.300000 -116.000000 4.127896
46.600000 -116.000000 4.129451
46.900000 -116.000000 4.126578
47.200000 -116.000000 4.120550
47.500000 -116.000000 4.114266
47.800000 -116.000000 4.110850
48.100000 -116.000000 4.111119
48.400000 -116.000000 4.112642
48.700000 -116.000000 4.113582
32.800000 -115.700000 3.976222
33.100000 -115.700000 3.974741
33.400000 -115.700000 3.967480
33.700000 -115.700000 3.960044
34.000000 -115.700000 3.953403
34.300000 -115.700000 3.949765
34.600000 -115.700000 3.946448
34.900000 -115.700000 3.947176
35.200000 -115.700000 3.953424
35.500000 -115.700000 3.961292
35.800000 -115.700000 3.964357
36.100000 -115.700000 3.965695
36.400000 -115.700000 3.965848
36.700000 -115.700000 3.965998
37.000000 -115.700000 3.967574
37.300000 -115.700000 3.970159
37.600000 -115.700000 3.974903
37.900000 -115.700000 3.981753
38.200000 -115.700000 3.987250
38.500000 -115.700000 3.990840
38.800000 -115.700000 3.994518
39.100000 -115.700000 3.996541
39.400000 -115.700000 3.996764
39.700000 -115.700000 3.994087
40.000000 -115.700000 3.988002
40.300000 -115.700000 3.982352
40.600000 -115.700000 3.977214
40.900000 -115.700000 3.973175
41.200000 -115.700000 3.969052
41.500000 -115.700000 3.966109
41.800000 -115.700000 3.965046
42.100000 -115.700000 3.966400
42.400000 -115.700000 3.970767
42.700000 -115.700000 3.978617
43.000000 -115.700000 3.990070
43.300000 -115.700000 4.002845
43.600000 -115.700000 4.018129
43.900000 -115.700000 4.032554
44.200000 -115.700000 4.045421
44.500000 -115.700000 4.057049
44.800000 -115.700000 4.067669
45.100000 -115.700000 4.079305
45.400000 -115.700000 4.093352
45.700000 -115.700000 4.106386
46.000000 -115.700000 4.117083
46.300000 -115.700000 4.124220
46.600000 -115.700000 4.126370
46.900000 -115.700000 4.123766
47.200000 -115.700000 4.116499
47.500000 -115.700000 4.107575
47.800000 -115.700000 4.102595
48.100000 -115.700000 4.102783
48.400000 -115.700000 4.104731
48.700000 -115.700000 4.107042
32.500000 -115.400000 3.971198
32.800000 -115.400000 3.972602
33.100000 -115.400000 3.971343
33.400000 -115.400000 3.966231
33.700000 -115.400000 3.959774
34.000000 -115.400000 3.952853
34.300000 -115.400000 3.947079
34.600000 -115.400000 3.943768
34.900000 -115.400000 3.946260
35.200000 -115.400000 3.955316
35.500000 -115.400000 3.966166
35.800000 -115.400000 3.972979
36.100000 -115.400000 3.974842
36.400000 -115.400000 3.973736
36.700000 -115.400000 3.970825
37.000000 -115.400000 3.968738
37.300000 -115.400000 3.968839
37.600000 -115.400000 3.971902
37.900000 -115.400000 3.978439
38.200000 -115.400000 3.983280
38.500000 -115.400000 3.987414
38.800000 -115.400000 3.990903
39.100000 -115.400000 3.992735
39.400000 -115.400000 3.992560
39.700000 -115.400000 3.990212
40.000000 -115.400000 3.984951
40.300000 -115.400000 3.980576
40.600000 -115.400000 3.976224
40.900000 -115.400000 3.973093
41.200000 -115.400000 3.968923
41.500000 -115.400000 3.965301
41.800000 -115.400000 3.963260
42.100000 -115.400000 3.963233
42.400000 -115.400000 3.966126
42.700000 -115.400000 3.972557
43.000000 -115.400000 3.982881
43.300000 -115.400000 3.995236
43.600000 -115.400000 4.010099
43.900000 -115.400000 4.024384
44.200000 -115.400000 4.037519
44.500000 -115.400000 4.049041
44.800000 -115.400000 4.059986
45.100000 -115.400000 4.071876
45.400000 -115.400000 4.086297
45.700000 -115.400000 4.100597
46.000000 -115.400000 4.113709
46.300000 -115.400000 4.125097
46.600000 -115.400000 4.131625
46.900000 -115.400000 4.131330
47.200000 -115.400000 4.122566
47.500000 -115.400000 4.108614
47.800000 -115.400000 4.099231
48.100000 -115.400000 4.096841
48.400000 -115.400000 4.097702
48.700000 -115.400000 4.100278
32.500000 -115.100000 3.970669
32.800000 -115.100000 3.972315
33.100000 -115.100000 3.971468
33.400000 -115.100000 3.969181
33.700000 -115.100000 3.963927
34.000000 -115.100000 3.955747
34.300000 -115.100000 3.948442
34.600000 -115.100000 3.945008
34.900000 -115.100000 3.949176
35.200000 -115.100000 3.958945
35.500000 -115.100000 3.970352
35.800000 -115.100000 3.977212
36.100000 -115.100000 3.978340
36.400000 -115.100000 3.975037
36.700000 -115.100000 3.969171
37.000000 -115.100000 3.964999
37.300000 -115.100000 3.964755
37.600000 -115.100000 3.968347
37.900000 -115.100000 3.975184
38.200000 -115.100000 3.980005
38.500000 -115.100000 3.984262
38.800000 -115.100000 3.987426
39.100000 -115.100000 3.988426
39.400000 -115.100000 3.987538
39.700000 -115.100000 3.985306
40.000000 -115.100000 3.981387
40.300000 -115.100000 3.977898
40.600000 -115.100000 3.974818
40.900000 -115.100000 3.972716
41.200000 -115.100000 3.968847
41.500000 -115.100000 3.964575
41.800000 -115.100000 3.961168
42.100000 -115.100000 3.959391
42.400000 -115.100000 3.960482
42.700000 -115.100000 3.965123
43.000000 -115.100000 3.973825
43.300000 -115.100000 3.985327
43.600000 -115.100000 3.999667
43.900000 -115.100000 4.013832
44.200000 -115.100000 4.027162
44.500000 -115.100000 4.038862
44.800000 -115.100000 4.050306
45.100000 -115.100000 4.062116
45.400000 -115.100000 4.076724
45.700000 -115.100000 4.094709
46.000000 -115.100000 4.114241
46.300000 -115.100000 4.133112
46.600000 -115.100000 4.147164
46.900000 -115.100000 4.149577
47.200000 -115.100000 4.137800
47.500000 -115.100000 4.118637
47.800000 -115.100000 4.103104
48.100000 -115.100000 4.095227
48.400000 -115.100000 4.093477
48.700000 -115.100000 4.095339
32.500000 -114.800000 3.973624
32.800000 -114.800000 3.975298
33.100000 -114.800000 3.976274
33.400000 -114.800000 3.976255
33.700000 -114.800000 3.970485
34.000000 -114.800000 3.960743
34.300000 -114.800000 3.953632
34.600000 -114.800000 3.949713
34.900000 -114.800000 3.953550
35.200000 -114.800000 3.963005
35.500000 -114.800000 3.973096
35.800000 -114.800000 3.976193
36.100000 -114.800000 3.975015
36.400000 -114.800000 3.969334
36.700000 -114.800000 3.962388
37.000000 -114.800000 3.958254
37.300000 -114.800000 3.958949
37.600000 -114.800000 3.964364
37.900000 -114.800000 3.971894
38.200000 -114.800000 3.977400
38.500000 -114.800000 3.981710
38.800000 -114.800000 3.983980
39.100000 -114.800000 3.983767
39.400000 -114.800000 3.981922
39.700000 -114.800000 3.980316
40.000000 -114.800000 3.977161
40.300000 -114.800000 3.975090
40.600000 -114.800000 3.973398
40.900000 -114.800000 3.972028
41.200000 -114.800000 3.968791
41.500000 -114.800000 3.964294
41.800000 -114.800000 3.959240
42.100000 -114.800000 3.955566
42.400000 -114.800000 3.954664
42.700000 -114.800000 3.957203
43.000000 -114.800000 3.964428
43.300000 -114.800000 3.974939
43.600000 -114.800000 3.988397
43.900000 -114.800000 4.002531
44.200000 -114.800000 4.016038
44.500000 -114.800000 4.028424
44.800000 -114.800000 4.040424
45.100000 -114.800000 4.052648
45.400000 -114.800000 4.068448
45.700000 -114.800000 4.090882
46.000000 -114.800000 4.117587
46.300000 -114.800000 4.143121
46.600000 -114.800000 4.161246
46.900000 -114.800000 4.164488
47.200000 -114.800000 4.152836
47.500000 -114.800000 4.131653
47.800000 -114.800000 4.111828
48.100000 -114.800000 4.098812
48.400000 -114.800000 4.093479
48.700000 -114.800000 4.094917
32.500000 -114.500000 3.977946
32.800000 -114.500000 3.981234
33.100000 -114.500000 3.983817
33.400000 -114.500000 3.983720
33.700000 -114.500000 3.978580
34.000000 -114.500000 3.968869
34.300000 -114.500000 3.960461
34.600000 -114.500000 3.956318
34.900000 -114.500000 3.958732
35.200000 -114.500000 3.965981
35.500000 -114.500000 3.971005
35.800000 -114.500000 3.971590
36.100000 -114.500000 3.967936
36.400000 -114.500000 3.960500
36.700000 -114.500000 3.953436
37.000000 -114.500000 3.950303
37.300000 -114.500000 3.952840
37.600000 -114.500000 3.960133
37.900000 -114.500000 3.968801
38.200000 -114.500000 3.975506
38.500000 -114.500000 3.979229
38.800000 -114.500000 3.980603
39.100000 -114.500000 3.978767
39.400000 -114.500000 3.976061
39.700000 -114.500000 3.974977
40.000000 -114.500000 3.974136
40.300000 -114.500000 3.973393
40.600000 -114.500000 3.972952
40.900000 -114.500000 3.971834
41.200000 -114.500000 3.969321
41.500000 -114.500000 3.964586
41.800000 -114.500000 3.958556
42.100000 -114.500000 3.953020
42.400000 -114.500000 3.949622
42.700000 -114.500000 3.950146
43.000000 -114.500000 3.955792
43.300000 -114.500000 3.964829
43.600000 -114.500000 3.977223
43.900000 -114.500000 3.991512
44.200000 -114.500000 4.005340
44.500000 -114.500000 4.018623
44.800000 -114.500000 4.031024
45.100000 -114.500000 4.044463
45.400000 -114.500000 4.062017
45.700000 -114.500000 4.087677
46.000000 -114.500000 4.120116
46.300000 -114.500000 4.149948
46.600000 -114.500000 4.167605
46.900000 -114.500000 4.169935
47.200000 -114.500000 4.160308
47.500000 -114.500000 4.142428
47.800000 -114.500000 4.122207
48.100000 -114.500000 4.106950
48.400000 -114.500000 4.099675
48.700000 -114.500000 4.099965
32.500000 -114.200000 3.981821
32.800000 -114.200000 3.987081
33.100000 -114.200000 3.990079
33.400000 -114.200000 3.990026
33.700000 -114.200000 3.986207
34.000000 -114.200000 3.977627
34.300000 -114.200000 3.967805
34.600000 -114.200000 3.962296
34.900000 -114.200000 3.961662
35.200000 -114.200000 3.964736
35.500000 -114.200000 3.966016
35.800000 -114.200000 3.964470
36.100000 -114.200000 3.958815
36.400000 -114.200000 3.951014
36.700000 -114.200000 3.945124
37.000000 -114.200000 3.943732
37.300000 -114.200000 3.947947
37.600000 -114.200000 3.956398
37.900000 -114.200000 3.966724
38.200000 -114.200000 3.973739
38.500000 -114.200000 3.976645
38.800000 -114.200000 3.976608
39.100000 -114.200000 3.973597
39.400000 -114.200000 3.970587
39.700000 -114.200000 3.970420
40.000000 -114.200000 3.971846
40.300000 -114.200000 3.972918
40.600000 -114.200000 3.973758
40.900000 -114.200000 3.973329
41.200000 -114.200000 3.971513
41.500000 -114.200000 3.966841
41.800000 -114.200000 3.960130
42.100000 -114.200000 3.952870
42.400000 -114.200000 3.947243
42.700000 -114.200000 3.945576
43.000000 -114.200000 3.949101
43.300000 -114.200000 3.956587
43.600000 -114.200000 3.967822
43.900000 -114.200000 3.981907
44.200000 -114.200000 3.996796
44.500000 -114.200000 4.011198
44.800000 -114.200000 4.024609
45.100000 -114.200000 4.038929
45.400000 -114.200000 4.058159
45.700000 -114.200000 4.086756
46.000000 -114.200000 4.120870
46.300000 -114.200000 4.150171
46.600000 -114.200000 4.166236
46.900000 -114.200000 4.169832
47.200000 -114.200000 4.163848
47.500000 -114.200000 4.150918
47.800000 -114.200000 4.134101
48.100000 -114.200000 4.118943
48.400000 -114.200000 4.109925
48.700000 -114.200000 4.108468
32.500000 -113.900000 3.985146
32.800000 -113.900000 3.991071
33.100000 -113.900000 3.993993
33.400000 -113.900000 3.995890
33.700000 -113.900000 3.991906
34.000000 -113.900000 3.983815
34.300000 -113.900000 3.974656
34.600000 -113.900000 3.966978
34.900000 -113.900000 3.962696
35.200000 -113.900000 3.961581
35.500000 -113.900000 3.960163
35.800000 -113.900000 3.956758
36.100000 -113.900000 3.950607
36.400000 -113.900000 3.943964
36.700000 -113.900000 3.939605
37.000000 -113.900000 3.940063
37.300000 -113.900000 3.945714
37.600000 -113.900000 3.955474
37.900000 -113.900000 3.966261
38.200000 -113.900000 3.972062
38.500000 -113.900000 3.973871
38.800000 -113.900000 3.972563
39.100000 -113.900000 3.968803
39.400000 -113.900000 3.966349
39.700000 -113.900000 3.967435
40.000000 -113.900000 3.971015
40.300000 -113.900000 3.974228
40.600000 -113.900000 3.976519
40.900000 -113.900000 3.976738
41.200000 -113.900000 3.975856
41.500000 -113.900000 3.971463
41.800000 -113.900000 3.964258
42.100000 -113.900000 3.955564
42.400000 -113.900000 3.948343
42.700000 -113.900000 3.944121
43.000000 -113.900000 3.945603
43.300000 -113.900000 3.951544
43.600000 -113.900000 3.961697
43.900000 -113.900000 3.975724
44.200000 -113.900000 3.991785
44.500000 -113.900000 4.007353
44.800000 -113.900000 4.021983
45.100000 -113.900000 4.036806
45.400000 -113.900000 4.056293
45.700000 -113.900000 4.084764
46.000000 -113.900000 4.118806
46.300000 -113.900000 4.146773
46.600000 -113.900000 4.163280
46.900000 -113.900000 4.168693
47.200000 -113.900000 4.165880
47.500000 -113.900000 4.156743
47.800000 -113.900000 4.142827
48.100000 -113.900000 4.129100
48.400000 -113.900000 4.119936
48.700000 -113.900000 4.118022
32.500000 -113.600000 3.987392
32.800000 -113.600000 3.992202
33.100000 -113.600000 3.995876
33.400000 -113.600000 3.997504
33.700000 -113.600000 3.994160
34.000000 -113.600000 3.986768
34.300000 -113.600000 3.977251
34.600000 -113.600000 3.968024
34.900000 -113.600000 3.961975
35.200000 -113.600000 3.957901
35.500000 -113.600000 3.954682
35.800000 -113.600000 3.950663
36.100000 -113.600000 3.945639
36.400000 -113.600000 3.940904
36.700000 -113.600000 3.938742
37.000000 -113.600000 3.941138
37.300000 -113.600000 3.948181
37.600000 -113.600000 3.958156
37.900000 -113.600000 3.967415
38.200000 -113.600000 3.970862
38.500000 -113.600000 3.971460
38.800000 -113.600000 3.969049
39.100000 -113.600000 3.965073
39.400000 -113.600000 3.963789
39.700000 -113.600000 3.965864
40.000000 -113.600000 3.971261
40.300000 -113.600000 3.976664
40.600000 -113.600000 3.981190
40.900000 -113.600000 3.982500
41.200000 -113.600000 3.982671
41.500000 -113.600000 3.978657
41.800000 -113.600000 3.971065
42.100000 -113.600000 3.961807
42.400000 -113.600000 3.953182
42.700000 -113.600000 3.947229
43.000000 -113.600000 3.946433
43.300000 -113.600000 3.950737
43.600000 -113.600000 3.959747
43.900000 -113.600000 3.973410
44.200000 -113.600000 3.990037
44.500000 -113.600000 4.006681
44.800000 -113.600000 4.021731
45.100000 -113.600000 4.036189
45.400000 -113.600000 4.053747
45.700000 -113.600000 4.079264
46.000000 -113.600000 4.111058
46.300000 -113.600000 4.140178
46.600000 -113.600000 4.159278
46.900000 -113.600000 4.167586
47.200000 -113.600000 4.166968
47.500000 -113.600000 4.158922
47.800000 -113.600000 4.145829
48.100000 -113.600000 4.134166
48.400000 -113.600000 4.127171
48.700000 -113.600000 4.126011
32.500000 -113.300000 3.988371
32.800000 -113.300000 3.992385
33.100000 -113.300000 3.995945
33.400000 -113.300000 3.996523
33.700000 -113.300000 3.993310
34.000000 -113.300000 3.986349
34.300000 -113.300000 3.975909
34.600000 -113.300000 3.966186
34.900000 -113.300000 3.959292
35.200000 -113.300000 3.954103
35.500000 -113.300000 3.950848
35.800000 -113.300000 3.948369
36.100000 -113.300000 3.945785
36.400000 -113.300000 3.943816
36.700000 -113.300000 3.944265
37.000000 -113.300000 3.947828
37.300000 -113.300000 3.954882
37.600000 -113.300000 3.963385
37.900000 -113.300000 3.969790
38.200000 -113.300000 3.970305
38.500000 -113.300000 3.968937
38.800000 -113.300000 3.965650
39.100000 -113.300000 3.962195
39.400000 -113.300000 3.962274
39.700000 -113.300000 3.965908
40.000000 -113.300000 3.973277
40.300000 -113.300000 3.980985
40.600000 -113.300000 3.987900
40.900000 -113.300000 3.991013
41.200000 -113.300000 3.992020
41.500000 -113.300000 3.988599
41.800000 -113.300000 3.980990
42.100000 -113.300000 3.971372
42.400000 -113.300000 3.961717
42.700000 -113.300000 3.954588
43.000000 -113.300000 3.951933
43.300000 -113.300000 3.954978
43.600000 -113.300000 3.962609
43.900000 -113.300000 3.975494
44.200000 -113.300000 3.991718
44.500000 -113.300000 4.008610
44.800000 -113.300000 4.023093
45.100000 -113.300000 4.035881
45.400000 -113.300000 4.049628
45.700000 -113.300000 4.069506
46.000000 -113.300000 4.097597
46.300000 -113.300000 4.127717
46.600000 -113.300000 4.150890
46.900000 -113.300000 4.163058
47.200000 -113.300000 4.164659
47.500000 -113.300000 4.156456
47.800000 -113.300000 4.144076
48.100000 -113.300000 4.134767
48.400000 -113.300000 4.131211
48.700000 -113.300000 4.131643
31.900000 -113.000000 3.983640
32.200000 -113.000000 3.985668
32.500000 -113.000000 3.988513
32.800000 -113.000000 3.990944
33.100000 -113.000000 3.992562
33.400000 -113.000000 3.993151
33.700000 -113.000000 3.989852
34.000000 -113.000000 3.982368
34.300000 -113.000000 3.971961
34.600000 -113.000000 3.962553
34.900000 -113.000000 3.955202
35.200000 -113.000000 3.950978
35.500000 -113.000000 3.949596
35.800000 -113.000000 3.949841
36.100000 -113.000000 3.950703
36.400000 -113.000000 3.952073
36.700000 -113.000000 3.954892
37.000000 -113.000000 3.959358
37.300000 -113.000000 3.965200
37.600000 -113.000000 3.970982
37.900000 -113.000000 3.973498
38.200000 -113.000000 3.971256
38.500000 -113.000000 3.968015
38.800000 -113.000000 3.963827
39.100000 -113.000000 3.960943
39.400000 -113.000000 3.961979
39.700000 -113.000000 3.967124
40.000000 -113.000000 3.977268
40.300000 -113.000000 3.987500
40.600000 -113.000000 3.996697
40.900000 -113.000000 4.001853
41.200000 -113.000000 4.003708
41.500000 -113.000000 4.001179
41.800000 -113.000000 3.994339
42.100000 -113.000000 3.984455
42.400000 -113.000000 3.974187
42.700000 -113.000000 3.966122
43.000000 -113.000000 3.962519
43.300000 -113.000000 3.964188
43.600000 -113.000000 3.969779
43.900000 -113.000000 3.980912
44.200000 -113.000000 3.996488
44.500000 -113.000000 4.012511
44.800000 -113.000000 4.025694
45.100000 -113.000000 4.035579
45.400000 -113.000000 4.045299
45.700000 -113.000000 4.058916
46.000000 -113.000000 4.081150
46.300000 -113.000000 4.109467
46.600000 -113.000000 4.135214
46.900000 -113.000000 4.151377
47.200000 -113.000000 4.155715
47.500000 -113.000000 4.149463
47.800000 -113.000000 4.139765
48.100000 -113.000000 4.134146
48.400000 -113.000000 4.133639
48.700000 -113.000000 4.135989
31.900000 -112.700000 3.984910
32.200000 -112.700000 3.985633
32.500000 -112.700000 3.987101
32.800000 -112.700000 3.987832
33.100000 -112.700000 3.988299
33.400000 -112.700000 3.987317
33.700000 -112.700000 3.983142
34.000000 -112.700000 3.974944
34.300000 -112.700000 3.965442
34.600000 -112.700000 3.956748
34.900000 -112.700000 3.950606
35.200000 -112.700000 3.948789
35.500000 -112.700000 3.950163
35.800000 -112.700000 3.954090
36.100000 -112.700000 3.959046
36.400000 -112.700000 3.963953
36.700000 -112.700000 3.968793
37.000000 -112.700000 3.973375
37.300000 -112.700000 3.977402
37.600000 -112.700000 3.979792
37.900000 -112.700000 3.978703
38.200000 -112.700000 3.973691
38.500000 -112.700000 3.968448
38.800000 -112.700000 3.963498
39.100000 -112.700000 3.961381
39.400000 -112.700000 3.963383
39.700000 -112.700000 3.970220
40.000000 -112.700000 3.982969
40.300000 -112.700000 3.995334
40.600000 -112.700000 4.006505
40.900000 -112.700000 4.013125
41.200000 -112.700000 4.017235
41.500000 -112.700000 4.015161
41.800000 -112.700000 4.009720
42.100000 -112.700000 4.000777
42.400000 -112.700000 3.990094
42.700000 -112.700000 3.980775
43.000000 -112.700000 3.975882
43.300000 -112.700000 3.975866
43.600000 -112.700000 3.980021
43.900000 -112.700000 3.989389
44.200000 -112.700000 4.002623
44.500000 -112.700000 4.016437
44.800000 -112.700000 4.027479
45.100000 -112.700000 4.035032
45.400000 -112.700000 4.040814
45.700000 -112.700000 4.048533
46.000000 -112.700000 4.063387
46.300000 -112.700000 4.086229
46.600000 -112.700000 4.110102
46.900000 -112.700000 4.128054
47.200000 -112.700000 4.135888
47.500000 -112.700000 4.135725
47.800000 -112.700000 4.132849
48.100000 -112.700000 4.132684
48.400000 -112.700000 4.135407
48.700000 -112.700000 4.139696
32.500000 -112.400000 3.984826
32.800000 -112.400000 3.984737
33.100000 -112.400000 3.983596
33.400000 -112.400000 3.980533
33.700000 -112.400000 3.974816
34.000000 -112.400000 3.966796
34.300000 -112.400000 3.957961
34.600000 -112.400000 3.950715
34.900000 -112.400000 3.947067
35.200000 -112.400000 3.947897
35.500000 -112.400000 3.952826
35.800000 -112.400000 3.960190
36.100000 -112.400000 3.968272
36.400000 -112.400000 3.975709
36.700000 -112.400000 3.982216
37.000000 -112.400000 3.986913
37.300000 -112.400000 3.989260
37.600000 -112.400000 3.988953
37.900000 -112.400000 3.985055
38.200000 -112.400000 3.978143
38.500000 -112.400000 3.971550
38.800000 -112.400000 3.966167
39.100000 -112.400000 3.964097
39.400000 -112.400000 3.967029
39.700000 -112.400000 3.975364
40.000000 -112.400000 3.989995
40.300000 -112.400000 4.004121
40.600000 -112.400000 4.017321
40.900000 -112.400000 4.024723
41.200000 -112.400000 4.029980
41.500000 -112.400000 4.029847
41.800000 -112.400000 4.025524
42.100000 -112.400000 4.017215
42.400000 -112.400000 4.007036
42.700000 -112.400000 3.997019
43.000000 -112.400000 3.991155
43.300000 -112.400000 3.989684
43.600000 -112.400000 3.992011
43.900000 -112.400000 3.998271
44.200000 -112.400000 4.006920
44.500000 -112.400000 4.017175
44.800000 -112.400000 4.026037
45.100000 -112.400000 4.032194
45.400000 -112.400000 4.036353
45.700000 -112.400000 4.041256
46.000000 -112.400000 4.050007
46.300000 -112.400000 4.065106
46.600000 -112.400000 4.083780
46.900000 -112.400000 4.100821
47.200000 -112.400000 4.113009
47.500000 -112.400000 4.121023
47.800000 -112.400000 4.127105
48.100000 -112.400000 4.132435
48.400000 -112.400000 4.137902
48.700000 -112.400000 4.143830
32.200000 -112.100000 3.985128
32.500000 -112.100000 3.983417
32.800000 -112.100000 3.981139
33.100000 -112.100000 3.978244
33.400000 -112.100000 3.973490
33.700000 -112.100000 3.966976
34.000000 -112.100000 3.959065
34.300000 -112.100000 3.951645
34.600000 -112.100000 3.946471
34.900000 -112.100000 3.945520
35.200000 -112.100000 3.948834
35.500000 -112.100000 3.956450
35.800000 -112.100000 3.966466
36.100000 -112.100000 3.976779
36.400000 -112.100000 3.986235
36.700000 -112.100000 3.993619
37.000000 -112.100000 3.997964
37.300000 -112.100000 3.999326
37.600000 -112.100000 3.997674
37.900000 -112.100000 3.992226
38.200000 -112.100000 3.984341
38.500000 -112.100000 3.977218
38.800000 -112.100000 3.971500
39.100000 -112.100000 3.969794
39.400000 -112.100000 3.973627
39.700000 -112.100000 3.982838
40.000000 -112.100000 3.998661
40.300000 -112.100000 4.013956
40.600000 -112.100000 4.028387
40.900000 -112.100000 4.036360
41.200000 -112.100000 4.042963
41.500000 -112.100000 4.043798
41.800000 -112.100000 4.040742
42.100000 -112.100000 4.033182
42.400000 -112.100000 4.024098
42.700000 -112.100000 4.014573
43.000000 -112.100000 4.007304
43.300000 -112.100000 4.003399
43.600000 -112.100000 4.002368
43.900000 -112.100000 4.003102
44.200000 -112.100000 4.006209
44.500000 -112.100000 4.011468
44.800000 -112.100000 4.018469
