31.900000 -90.500000 4.074371
32.200000 -90.500000 4.084964
32.500000 -90.500000 4.094896
32.800000 -90.500000 4.103619
33.100000 -90.500000 4.111046
33.400000 -90.500000 4.117585
33.700000 -90.500000 4.122716
34.000000 -90.500000 4.127151
34.300000 -90.500000 4.130890
34.600000 -90.500000 4.133336
34.900000 -90.500000 4.133720
35.200000 -90.500000 4.131612
35.500000 -90.500000 4.128588
35.800000 -90.500000 4.127205
36.100000 -90.500000 4.129788
36.400000 -90.500000 4.138953
36.700000 -90.500000 4.153453
37.000000 -90.500000 4.167886
37.300000 -90.500000 4.178373
37.600000 -90.500000 4.180976
37.900000 -90.500000 4.178513
38.200000 -90.500000 4.171686
38.500000 -90.500000 4.166580
38.800000 -90.500000 4.166457
39.100000 -90.500000 4.172377
39.400000 -90.500000 4.182970
39.700000 -90.500000 4.194782
40.000000 -90.500000 4.204734
40.300000 -90.500000 4.210157
40.600000 -90.500000 4.211069
40.900000 -90.500000 4.209381
41.200000 -90.500000 4.206298
41.500000 -90.500000 4.203451
41.800000 -90.500000 4.200922
42.100000 -90.500000 4.198277
42.400000 -90.500000 4.196684
42.700000 -90.500000 4.196123
43.000000 -90.500000 4.195685
43.300000 -90.500000 4.194802
43.600000 -90.500000 4.193762
43.900000 -90.500000 4.192947
44.200000 -90.500000 4.192015
44.500000 -90.500000 4.190433
44.800000 -90.500000 4.188638
45.100000 -90.500000 4.186900
45.400000 -90.500000 4.187976
45.700000 -90.500000 4.190979
46.000000 -90.500000 4.192464
46.300000 -90.500000 4.197284
47.500000 -90.500000 4.225190
47.800000 -90.500000 4.223479
29.500000 -90.200000 4.027489
29.800000 -90.200000 4.026304
30.100000 -90.200000 4.025904
30.400000 -90.200000 4.027552
30.700000 -90.200000 4.032944
31.000000 -90.200000 4.042824
31.300000 -90.200000 4.056088
31.600000 -90.200000 4.070755
31.900000 -90.200000 4.084817
32.200000 -90.200000 4.097969
32.500000 -90.200000 4.110115
32.800000 -90.200000 4.120478
33.100000 -90.200000 4.129335
33.400000 -90.200000 4.136595
33.700000 -90.200000 4.141632
34.000000 -90.200000 4.144124
34.300000 -90.200000 4.145761
34.600000 -90.200000 4.146028
34.900000 -90.200000 4.145109
35.200000 -90.200000 4.141811
35.500000 -90.200000 4.137259
35.800000 -90.200000 4.133688
36.100000 -90.200000 4.134575
36.400000 -90.200000 4.141234
36.700000 -90.200000 4.153031
37.000000 -90.200000 4.166474
37.300000 -90.200000 4.175308
37.600000 -90.200000 4.178112
37.900000 -90.200000 4.175320
38.200000 -90.200000 4.169547
38.500000 -90.200000 4.163768
38.800000 -90.200000 4.163563
39.100000 -90.200000 4.168923
39.400000 -90.200000 4.178063
39.700000 -90.200000 4.188365
40.000000 -90.200000 4.196622
40.300000 -90.200000 4.200949
40.600000 -90.200000 4.201434
40.900000 -90.200000 4.199496
41.200000 -90.200000 4.197027
41.500000 -90.200000 4.195435
41.800000 -90.200000 4.193714
42.100000 -90.200000 4.192191
42.400000 -90.200000 4.191004
42.700000 -90.200000 4.190550
43.000000 -90.200000 4.190407
43.300000 -90.200000 4.190316
43.600000 -90.200000 4.190123
43.900000 -90.200000 4.190136
44.200000 -90.200000 4.190465
44.500000 -90.200000 4.190571
44.800000 -90.200000 4.189274
45.100000 -90.200000 4.187299
45.400000 -90.200000 4.187009
45.700000 -90.200000 4.188826
46.000000 -90.200000 4.189803
46.300000 -90.200000 4.190981
47.500000 -90.200000 4.215443
47.800000 -90.200000 4.213385
29.500000 -89.900000 4.024854
29.800000 -89.900000 4.023709
30.100000 -89.900000 4.022816
30.400000 -89.900000 4.025125
30.700000 -89.900000 4.031017
31.000000 -89.900000 4.043079
31.300000 -89.900000 4.059114
31.600000 -89.900000 4.077184
31.900000 -89.900000 4.094263
32.200000 -89.900000 4.109796
32.500000 -89.900000 4.123331
32.800000 -89.900000 4.135062
33.100000 -89.900000 4.145069
33.400000 -89.900000 4.152885
33.700000 -89.900000 4.157444
34.000000 -89.900000 4.159361
34.300000 -89.900000 4.159651
34.600000 -89.900000 4.158081
34.900000 -89.900000 4.155448
35.200000 -89.900000 4.151381
35.500000 -89.900000 4.145791
35.800000 -89.900000 4.141440
36.100000 -89.900000 4.140391
36.400000 -89.900000 4.144088
36.700000 -89.900000 4.152049
37.000000 -89.900000 4.162107
37.300000 -89.900000 4.169376
37.600000 -89.900000 4.172074
37.900000 -89.900000 4.170167
38.200000 -89.900000 4.165781
38.500000 -89.900000 4.161460
38.800000 -89.900000 4.161679
39.100000 -89.900000 4.165746
39.400000 -89.900000 4.172773
39.700000 -89.900000 4.180900
40.000000 -89.900000 4.186551
40.300000 -89.900000 4.189136
40.600000 -89.900000 4.189098
40.900000 -89.900000 4.187933
41.200000 -89.900000 4.186809
41.500000 -89.900000 4.186821
41.800000 -89.900000 4.186730
42.100000 -89.900000 4.187211
42.400000 -89.900000 4.187279
42.700000 -89.900000 4.187060
43.000000 -89.900000 4.186951
43.300000 -89.900000 4.187233
43.600000 -89.900000 4.187533
43.900000 -89.900000 4.188595
44.200000 -89.900000 4.189626
44.500000 -89.900000 4.190988
44.800000 -89.900000 4.190652
45.100000 -89.900000 4.188861
45.400000 -89.900000 4.186900
45.700000 -89.900000 4.186858
46.000000 -89.900000 4.186958
46.300000 -89.900000 4.187238
47.800000 -89.900000 4.210362
30.100000 -89.600000 4.020106
30.400000 -89.600000 4.023549
30.700000 -89.600000 4.031003
31.000000 -89.600000 4.044142
31.300000 -89.600000 4.062377
31.600000 -89.600000 4.082573
31.900000 -89.600000 4.101861
32.200000 -89.600000 4.118980
32.500000 -89.600000 4.133661
32.800000 -89.600000 4.145883
33.100000 -89.600000 4.156275
33.400000 -89.600000 4.164140
33.700000 -89.600000 4.168783
34.000000 -89.600000 4.170812
34.300000 -89.600000 4.170393
34.600000 -89.600000 4.168056
34.900000 -89.600000 4.164398
35.200000 -89.600000 4.160303
35.500000 -89.600000 4.155187
35.800000 -89.600000 4.150203
36.100000 -89.600000 4.146693
36.400000 -89.600000 4.147447
36.700000 -89.600000 4.150851
37.000000 -89.600000 4.156386
37.300000 -89.600000 4.161184
37.600000 -89.600000 4.163714
37.900000 -89.600000 4.163029
38.200000 -89.600000 4.160839
38.500000 -89.600000 4.159184
38.800000 -89.600000 4.160144
39.100000 -89.600000 4.163464
39.400000 -89.600000 4.168209
39.700000 -89.600000 4.173590
40.000000 -89.600000 4.176953
40.300000 -89.600000 4.178087
40.600000 -89.600000 4.177996
40.900000 -89.600000 4.176773
41.200000 -89.600000 4.177869
41.500000 -89.600000 4.179314
41.800000 -89.600000 4.181576
42.100000 -89.600000 4.183664
42.400000 -89.600000 4.184784
42.700000 -89.600000 4.184340
43.000000 -89.600000 4.184425
43.300000 -89.600000 4.184447
43.600000 -89.600000 4.185388
43.900000 -89.600000 4.186862
44.200000 -89.600000 4.189118
44.500000 -89.600000 4.191186
44.800000 -89.600000 4.191629
45.100000 -89.600000 4.189865
45.400000 -89.600000 4.186867
45.700000 -89.600000 4.185036
46.000000 -89.600000 4.183893
46.300000 -89.600000 4.182525
47.800000 -89.600000 4.207582
30.400000 -89.300000 4.024222
30.700000 -89.300000 4.034095
31.000000 -89.300000 4.046822
31.300000 -89.300000 4.066078
31.600000 -89.300000 4.087047
31.900000 -89.300000 4.107513
32.200000 -89.300000 4.125334
32.500000 -89.300000 4.140001
32.800000 -89.300000 4.152129
33.100000 -89.300000 4.162673
33.400000 -89.300000 4.170909
33.700000 -89.300000 4.175673
34.000000 -89.300000 4.178183
34.300000 -89.300000 4.178186
34.600000 -89.300000 4.175577
34.900000 -89.300000 4.171674
35.200000 -89.300000 4.168050
35.500000 -89.300000 4.164119
35.800000 -89.300000 4.158174
36.100000 -89.300000 4.153842
36.400000 -89.300000 4.151226
36.700000 -89.300000 4.151290
37.000000 -89.300000 4.151563
37.300000 -89.300000 4.154184
37.600000 -89.300000 4.155715
37.900000 -89.300000 4.156257
38.200000 -89.300000 4.156435
38.500000 -89.300000 4.158291
38.800000 -89.300000 4.160129
39.100000 -89.300000 4.162092
39.400000 -89.300000 4.165422
39.700000 -89.300000 4.168295
40.000000 -89.300000 4.169887
40.300000 -89.300000 4.170316
40.600000 -89.300000 4.169950
40.900000 -89.300000 4.170329
41.200000 -89.300000 4.172121
41.500000 -89.300000 4.175326
41.800000 -89.300000 4.178225
42.100000 -89.300000 4.181694
42.400000 -89.300000 4.183396
42.700000 -89.300000 4.182939
43.000000 -89.300000 4.182348
43.300000 -89.300000 4.181862
43.600000 -89.300000 4.182485
43.900000 -89.300000 4.184454
44.200000 -89.300000 4.187809
44.500000 -89.300000 4.190648
44.800000 -89.300000 4.191553
45.100000 -89.300000 4.189910
45.400000 -89.300000 4.186610
45.700000 -89.300000 4.183957
46.000000 -89.300000 4.182143
46.300000 -89.300000 4.179996
46.600000 -89.300000 4.178576
47.500000 -89.300000 4.193292
47.800000 -89.300000 4.200433
30.400000 -89.000000 4.029101
30.700000 -89.000000 4.040112
31.000000 -89.000000 4.052555
31.300000 -89.000000 4.070684
31.600000 -89.000000 4.091655
31.900000 -89.000000 4.111590
32.200000 -89.000000 4.129262
32.500000 -89.000000 4.143710
32.800000 -89.000000 4.155194
33.100000 -89.000000 4.165102
33.400000 -89.000000 4.173426
33.700000 -89.000000 4.179173
34.000000 -89.000000 4.181943
34.300000 -89.000000 4.182750
34.600000 -89.000000 4.180671
34.900000 -89.000000 4.177412
35.200000 -89.000000 4.173815
35.500000 -89.000000 4.169992
35.800000 -89.000000 4.163810
36.100000 -89.000000 4.159391
36.400000 -89.000000 4.155042
36.700000 -89.000000 4.151814
37.000000 -89.000000 4.149990
37.300000 -89.000000 4.149207
37.600000 -89.000000 4.150813
37.900000 -89.000000 4.151808
38.200000 -89.000000 4.154442
38.500000 -89.000000 4.158287
38.800000 -89.000000 4.160756
39.100000 -89.000000 4.162776
39.400000 -89.000000 4.164870
39.700000 -89.000000 4.166206
40.000000 -89.000000 4.167005
40.300000 -89.000000 4.167680
40.600000 -89.000000 4.168085
40.900000 -89.000000 4.169146
41.200000 -89.000000 4.171398
41.500000 -89.000000 4.174528
41.800000 -89.000000 4.177917
42.100000 -89.000000 4.181029
42.400000 -89.000000 4.182785
42.700000 -89.000000 4.182557
43.000000 -89.000000 4.180895
43.300000 -89.000000 4.180222
43.600000 -89.000000 4.179929
43.900000 -89.000000 4.182155
44.200000 -89.000000 4.185716
44.500000 -89.000000 4.189719
44.800000 -89.000000 4.190870
45.100000 -89.000000 4.189438
45.400000 -89.000000 4.186625
45.700000 -89.000000 4.183900
46.000000 -89.000000 4.181633
46.300000 -89.000000 4.179347
46.600000 -89.000000 4.177679
46.900000 -89.000000 4.175991
30.700000 -88.700000 4.048473
31.000000 -88.700000 4.060746
31.300000 -88.700000 4.076549
31.600000 -88.700000 4.096775
31.900000 -88.700000 4.116063
32.200000 -88.700000 4.132911
32.500000 -88.700000 4.146813
32.800000 -88.700000 4.157524
33.100000 -88.700000 4.166439
33.400000 -88.700000 4.174265
33.700000 -88.700000 4.180163
34.000000 -88.700000 4.183646
34.300000 -88.700000 4.185095
34.600000 -88.700000 4.183588
34.900000 -88.700000 4.180547
35.200000 -88.700000 4.176572
35.500000 -88.700000 4.172334
35.800000 -88.700000 4.167047
36.100000 -88.700000 4.162620
36.400000 -88.700000 4.157756
36.700000 -88.700000 4.153339
37.000000 -88.700000 4.150106
37.300000 -88.700000 4.148848
37.600000 -88.700000 4.149047
37.900000 -88.700000 4.151245
38.200000 -88.700000 4.155057
38.500000 -88.700000 4.159250
38.800000 -88.700000 4.162780
39.100000 -88.700000 4.165378
39.400000 -88.700000 4.166721
39.700000 -88.700000 4.167461
40.000000 -88.700000 4.168911
40.300000 -88.700000 4.170222
40.600000 -88.700000 4.171140
40.900000 -88.700000 4.173069
41.200000 -88.700000 4.175108
41.500000 -88.700000 4.177192
41.800000 -88.700000 4.179501
42.100000 -88.700000 4.180841
42.400000 -88.700000 4.182152
42.700000 -88.700000 4.182331
43.000000 -88.700000 4.180032
43.300000 -88.700000 4.178493
43.600000 -88.700000 4.177606
43.900000 -88.700000 4.180232
44.200000 -88.700000 4.184615
44.500000 -88.700000 4.189098
44.800000 -88.700000 4.190585
45.100000 -88.700000 4.189383
45.400000 -88.700000 4.186958
45.700000 -88.700000 4.183725
46.000000 -88.700000 4.181693
46.300000 -88.700000 4.179532
46.900000 -88.700000 4.176596
30.700000 -88.400000 4.058587
31.000000 -88.400000 4.070377
31.300000 -88.400000 4.083182
31.600000 -88.400000 4.102317
31.900000 -88.400000 4.120672
32.200000 -88.400000 4.137135
32.500000 -88.400000 4.150864
32.800000 -88.400000 4.161379
33.100000 -88.400000 4.168919
33.400000 -88.400000 4.175978
33.700000 -88.400000 4.181597
34.000000 -88.400000 4.185674
34.300000 -88.400000 4.186652
34.600000 -88.400000 4.185312
34.900000 -88.400000 4.182589
35.200000 -88.400000 4.178512
35.500000 -88.400000 4.173454
35.800000 -88.400000 4.168260
36.100000 -88.400000 4.163869
36.400000 -88.400000 4.159141
36.700000 -88.400000 4.155115
37.000000 -88.400000 4.152342
37.300000 -88.400000 4.150905
37.600000 -88.400000 4.150992
37.900000 -88.400000 4.153577
38.200000 -88.400000 4.157427
38.500000 -88.400000 4.162064
38.800000 -88.400000 4.165864
39.100000 -88.400000 4.168791
39.400000 -88.400000 4.170076
39.700000 -88.400000 4.171363
40.000000 -88.400000 4.173789
40.300000 -88.400000 4.175857
40.600000 -88.400000 4.177407
40.900000 -88.400000 4.178763
41.200000 -88.400000 4.180176
41.500000 -88.400000 4.181213
41.800000 -88.400000 4.181625
42.100000 -88.400000 4.181301
42.400000 -88.400000 4.181524
42.700000 -88.400000 4.182239
43.000000 -88.400000 4.179765
43.300000 -88.400000 4.177028
43.600000 -88.400000 4.178194
43.900000 -88.400000 4.182621
44.200000 -88.400000 4.188581
44.500000 -88.400000 4.191433
44.800000 -88.400000 4.192101
45.100000 -88.400000 4.189890
45.400000 -88.400000 4.186260
45.700000 -88.400000 4.182652
46.000000 -88.400000 4.181179
46.300000 -88.400000 4.179285
46.600000 -88.400000 4.177993
30.700000 -88.100000 4.069595
31.000000 -88.100000 4.078086
31.300000 -88.100000 4.090371
31.600000 -88.100000 4.108368
31.900000 -88.100000 4.126176
32.200000 -88.100000 4.141982
32.500000 -88.100000 4.155326
32.800000 -88.100000 4.165521
33.100000 -88.100000 4.173292
33.400000 -88.100000 4.178815
33.700000 -88.100000 4.183171
34.000000 -88.100000 4.186561
34.300000 -88.100000 4.187944
34.600000 -88.100000 4.186932
34.900000 -88.100000 4.183897
35.200000 -88.100000 4.179750
35.500000 -88.100000 4.174059
35.800000 -88.100000 4.168407
36.100000 -88.100000 4.163512
36.400000 -88.100000 4.159440
36.700000 -88.100000 4.156217
37.000000 -88.100000 4.154764
37.300000 -88.100000 4.154171
37.600000 -88.100000 4.155251
37.900000 -88.100000 4.157355
38.200000 -88.100000 4.161042
38.500000 -88.100000 4.165232
38.800000 -88.100000 4.169531
39.100000 -88.100000 4.172641
39.400000 -88.100000 4.174338
39.700000 -88.100000 4.176248
40.000000 -88.100000 4.178895
40.300000 -88.100000 4.181349
40.600000 -88.100000 4.183129
40.900000 -88.100000 4.183497
41.200000 -88.100000 4.183330
41.500000 -88.100000 4.182634
41.800000 -88.100000 4.182952
42.100000 -88.100000 4.182431
42.400000 -88.100000 4.181797
43.300000 -88.100000 4.175372
43.900000 -88.100000 4.186176
44.200000 -88.100000 4.193131
44.500000 -88.100000 4.194723
44.800000 -88.100000 4.194071
45.100000 -88.100000 4.190821
45.400000 -88.100000 4.185826
45.700000 -88.100000 4.181120
46.000000 -88.100000 4.179037
46.300000 -88.100000 4.178736
30.700000 -87.800000 4.076828
31.000000 -87.800000 4.085490
31.300000 -87.800000 4.097353
31.600000 -87.800000 4.114801
31.900000 -87.800000 4.131948
32.200000 -87.800000 4.147399
32.500000 -87.800000 4.159956
32.800000 -87.800000 4.169454
33.100000 -87.800000 4.176580
33.400000 -87.800000 4.180744
33.700000 -87.800000 4.183690
34.000000 -87.800000 4.186179
34.300000 -87.800000 4.187883
34.600000 -87.800000 4.187185
34.900000 -87.800000 4.184054
35.200000 -87.800000 4.179833
35.500000 -87.800000 4.173868
35.800000 -87.800000 4.167758
36.100000 -87.800000 4.162582
36.400000 -87.800000 4.158827
36.700000 -87.800000 4.156722
37.000000 -87.800000 4.156252
37.300000 -87.800000 4.157913
37.600000 -87.800000 4.158884
37.900000 -87.800000 4.161187
38.200000 -87.800000 4.164389
38.500000 -87.800000 4.168522
38.800000 -87.800000 4.172950
39.100000 -87.800000 4.176351
39.400000 -87.800000 4.178947
39.700000 -87.800000 4.181040
40.000000 -87.800000 4.182747
40.300000 -87.800000 4.184916
40.600000 -87.800000 4.185918
40.900000 -87.800000 4.184808
41.200000 -87.800000 4.183151
41.500000 -87.800000 4.180551
41.800000 -87.800000 4.180452
42.100000 -87.800000 4.182685
44.200000 -87.800000 4.200533
44.500000 -87.800000 4.200422
44.800000 -87.800000 4.197471
45.100000 -87.800000 4.191934
45.400000 -87.800000 4.184532
45.700000 -87.800000 4.179180
46.000000 -87.800000 4.176536
46.300000 -87.800000 4.176430
30.700000 -87.500000 4.083474
31.000000 -87.500000 4.092183
31.300000 -87.500000 4.103749
31.600000 -87.500000 4.120747
31.900000 -87.500000 4.136803
32.200000 -87.500000 4.151435
32.500000 -87.500000 4.163471
32.800000 -87.500000 4.172065
33.100000 -87.500000 4.178076
33.400000 -87.500000 4.181542
33.700000 -87.500000 4.183820
34.000000 -87.500000 4.184999
34.300000 -87.500000 4.185792
34.600000 -87.500000 4.185043
34.900000 -87.500000 4.182270
35.200000 -87.500000 4.178297
35.500000 -87.500000 4.172903
35.800000 -87.500000 4.166395
36.100000 -87.500000 4.160895
36.400000 -87.500000 4.157485
36.700000 -87.500000 4.156267
37.000000 -87.500000 4.157807
37.300000 -87.500000 4.159641
37.600000 -87.500000 4.161640
37.900000 -87.500000 4.163625
38.200000 -87.500000 4.167192
38.500000 -87.500000 4.171419
38.800000 -87.500000 4.175654
39.100000 -87.500000 4.179492
39.400000 -87.500000 4.182583
39.700000 -87.500000 4.184640
40.000000 -87.500000 4.185666
40.300000 -87.500000 4.186330
40.600000 -87.500000 4.185130
40.900000 -87.500000 4.181838
41.200000 -87.500000 4.178613
41.500000 -87.500000 4.174409
42.100000 -87.500000 4.177520
43.900000 -87.500000 4.203925
44.200000 -87.500000 4.203551
44.500000 -87.500000 4.205400
44.800000 -87.500000 4.202743
45.100000 -87.500000 4.191828
45.400000 -87.500000 4.180599
45.700000 -87.500000 4.175839
46.000000 -87.500000 4.172991
46.300000 -87.500000 4.172564
30.700000 -87.200000 4.088257
31.000000 -87.200000 4.097674
31.300000 -87.200000 4.108987
31.600000 -87.200000 4.125092
31.900000 -87.200000 4.140200
32.200000 -87.200000 4.153523
32.500000 -87.200000 4.164363
32.800000 -87.200000 4.172043
33.100000 -87.200000 4.177053
33.400000 -87.200000 4.180472
33.700000 -87.200000 4.182253
34.000000 -87.200000 4.183090
34.300000 -87.200000 4.182765
34.600000 -87.200000 4.181733
34.900000 -87.200000 4.179369
35.200000 -87.200000 4.175029
35.500000 -87.200000 4.169949
35.800000 -87.200000 4.163476
36.100000 -87.200000 4.158194
36.400000 -87.200000 4.154736
36.700000 -87.200000 4.155037
37.000000 -87.200000 4.157349
37.300000 -87.200000 4.159984
37.600000 -87.200000 4.162109
37.900000 -87.200000 4.165584
38.200000 -87.200000 4.168642
38.500000 -87.200000 4.172432
38.800000 -87.200000 4.176517
39.100000 -87.200000 4.180821
39.400000 -87.200000 4.184381
39.700000 -87.200000 4.187055
40.000000 -87.200000 4.188245
40.300000 -87.200000 4.186638
40.600000 -87.200000 4.182649
40.900000 -87.200000 4.176794
41.200000 -87.200000 4.171446
41.500000 -87.200000 4.168276
44.200000 -87.200000 4.200405
44.500000 -87.200000 4.203707
45.100000 -87.200000 4.188244
45.700000 -87.200000 4.170846
46.000000 -87.200000 4.167898
46.300000 -87.200000 4.167012
30.700000 -86.900000 4.092374
31.000000 -86.900000 4.101225
31.300000 -86.900000 4.113229
31.600000 -86.900000 4.128244
31.900000 -86.900000 4.141770
32.200000 -86.900000 4.152992
32.500000 -86.900000 4.162118
32.800000 -86.900000 4.168717
33.100000 -86.900000 4.173704
33.400000 -86.900000 4.177071
33.700000 -86.900000 4.179318
34.000000 -86.900000 4.179893
34.300000 -86.900000 4.179363
34.600000 -86.900000 4.177747
34.900000 -86.900000 4.175073
35.200000 -86.900000 4.170421
35.500000 -86.900000 4.164777
35.800000 -86.900000 4.159138
36.100000 -86.900000 4.154120
36.400000 -86.900000 4.151389
36.700000 -86.900000 4.151629
37.000000 -86.900000 4.154462
37.300000 -86.900000 4.157580
37.600000 -86.900000 4.161640
37.900000 -86.900000 4.165710
38.200000 -86.900000 4.168463
38.500000 -86.900000 4.171764
38.800000 -86.900000 4.175816
39.100000 -86.900000 4.180297
39.400000 -86.900000 4.185170
39.700000 -86.900000 4.189247
40.000000 -86.900000 4.190780
40.300000 -86.900000 4.188753
40.600000 -86.900000 4.182811
40.900000 -86.900000 4.174232
41.200000 -86.900000 4.168594
41.500000 -86.900000 4.166695
41.800000 -86.900000 4.168389
43.900000 -86.900000 4.192301
44.200000 -86.900000 4.195468
44.500000 -86.900000 4.197317
45.400000 -86.900000 4.168471
45.700000 -86.900000 4.164656
46.000000 -86.900000 4.163061
46.300000 -86.900000 4.161976
30.400000 -86.600000 4.088417
30.700000 -86.600000 4.095960
31.000000 -86.600000 4.104238
31.300000 -86.600000 4.116922
31.600000 -86.600000 4.130234
31.900000 -86.600000 4.141464
32.200000 -86.600000 4.150499
32.500000 -86.600000 4.157627
32.800000 -86.600000 4.163582
33.100000 -86.600000 4.168055
33.400000 -86.600000 4.171800
33.700000 -86.600000 4.174405
34.000000 -86.600000 4.176059
34.300000 -86.600000 4.175639
34.600000 -86.600000 4.173823
34.900000 -86.600000 4.170187
35.200000 -86.600000 4.165469
35.500000 -86.600000 4.159825
35.800000 -86.600000 4.154906
36.100000 -86.600000 4.150167
36.400000 -86.600000 4.147305
36.700000 -86.600000 4.147707
37.000000 -86.600000 4.150083
37.300000 -86.600000 4.154607
37.600000 -86.600000 4.159689
37.900000 -86.600000 4.163361
38.200000 -86.600000 4.166631
38.500000 -86.600000 4.170808
38.800000 -86.600000 4.175721
39.100000 -86.600000 4.181088
39.400000 -86.600000 4.187254
39.700000 -86.600000 4.192767
40.000000 -86.600000 4.195609
40.300000 -86.600000 4.193910
40.600000 -86.600000 4.188203
40.900000 -86.600000 4.179153
41.200000 -86.600000 4.173189
41.500000 -86.600000 4.173335
41.800000 -86.600000 4.178170
43.300000 -86.600000 4.183886
43.900000 -86.600000 4.186693
44.500000 -86.600000 4.187076
45.400000 -86.600000 4.163168
45.700000 -86.600000 4.159657
46.000000 -86.600000 4.158766
46.300000 -86.600000 4.158299
30.400000 -86.300000 4.092229
30.700000 -86.300000 4.100447
31.000000 -86.300000 4.108015
31.300000 -86.300000 4.120736
31.600000 -86.300000 4.132084
31.900000 -86.300000 4.140612
32.200000 -86.300000 4.147225
32.500000 -86.300000 4.152303
32.800000 -86.300000 4.157202
33.100000 -86.300000 4.160852
33.400000 -86.300000 4.164477
33.700000 -86.300000 4.167671
34.000000 -86.300000 4.169782
34.300000 -86.300000 4.170081
34.600000 -86.300000 4.168776
34.900000 -86.300000 4.165508
35.200000 -86.300000 4.161462
35.500000 -86.300000 4.156595
35.800000 -86.300000 4.152141
36.100000 -86.300000 4.146755
36.400000 -86.300000 4.143940
36.700000 -86.300000 4.143438
37.000000 -86.300000 4.145860
37.300000 -86.300000 4.150981
37.600000 -86.300000 4.156244
37.900000 -86.300000 4.160484
38.200000 -86.300000 4.164966
38.500000 -86.300000 4.171017
38.800000 -86.300000 4.177417
39.100000 -86.300000 4.185605
39.400000 -86.300000 4.193726
39.700000 -86.300000 4.200962
40.000000 -86.300000 4.205152
40.300000 -86.300000 4.205239
40.600000 -86.300000 4.199710
40.900000 -86.300000 4.191405
41.200000 -86.300000 4.185866
41.500000 -86.300000 4.185336
41.800000 -86.300000 4.193223
42.100000 -86.300000 4.202781
42.400000 -86.300000 4.210647
43.000000 -86.300000 4.193273
43.300000 -86.300000 4.183998
43.600000 -86.300000 4.181946
43.900000 -86.300000 4.183224
44.200000 -86.300000 4.181985
44.500000 -86.300000 4.175982
44.800000 -86.300000 4.168337
45.100000 -86.300000 4.160770
45.400000 -86.300000 4.158743
45.700000 -86.300000 4.156537
46.000000 -86.300000 4.156910
46.300000 -86.300000 4.156813
30.400000 -86.000000 4.095869
30.700000 -86.000000 4.104171
31.000000 -86.000000 4.114325
31.300000 -86.000000 4.125567
31.600000 -86.000000 4.134958
31.900000 -86.000000 4.141235
32.200000 -86.000000 4.144882
32.500000 -86.000000 4.147192
32.800000 -86.000000 4.150075
33.100000 -86.000000 4.152735
33.400000 -86.000000 4.155951
33.700000 -86.000000 4.159380
34.000000 -86.000000 4.161339
34.300000 -86.000000 4.161929
34.600000 -86.000000 4.161368
34.900000 -86.000000 4.160352
35.200000 -86.000000 4.157845
35.500000 -86.000000 4.154745
35.800000 -86.000000 4.150756
36.100000 -86.000000 4.145875
36.400000 -86.000000 4.141631
36.700000 -86.000000 4.140638
37.000000 -86.000000 4.142116
37.300000 -86.000000 4.147272
37.600000 -86.000000 4.152802
37.900000 -86.000000 4.158591
38.200000 -86.000000 4.165232
38.500000 -86.000000 4.173159
38.800000 -86.000000 4.181886
39.100000 -86.000000 4.192519
39.400000 -86.000000 4.204059
39.700000 -86.000000 4.214145
40.000000 -86.000000 4.221328
40.300000 -86.000000 4.222140
40.600000 -86.000000 4.216496
40.900000 -86.000000 4.207921
41.200000 -86.000000 4.203050
41.500000 -86.000000 4.202905
41.800000 -86.000000 4.207697
42.100000 -86.000000 4.216109
42.400000 -86.000000 4.215735
42.700000 -86.000000 4.204806
43.000000 -86.000000 4.193458
43.300000 -86.000000 4.185719
43.600000 -86.000000 4.182982
43.900000 -86.000000 4.180885
44.200000 -86.000000 4.177869
44.500000 -86.000000 4.170839
44.800000 -86.000000 4.163682
45.100000 -86.000000 4.156857
45.400000 -86.000000 4.155816
45.700000 -86.000000 4.155873
46.000000 -86.000000 4.155512
46.300000 -86.000000 4.156712
30.100000 -85.700000 4.092137
30.400000 -85.700000 4.099588
30.700000 -85.700000 4.109096
31.000000 -85.700000 4.121577
31.300000 -85.700000 4.132072
31.600000 -85.700000 4.139003
31.900000 -85.700000 4.142863
32.200000 -85.700000 4.142727
32.500000 -85.700000 4.142955
32.800000 -85.700000 4.143272
33.100000 -85.700000 4.144603
33.400000 -85.700000 4.145848
33.700000 -85.700000 4.148695
34.000000 -85.700000 4.150708
34.300000 -85.700000 4.151468
34.600000 -85.700000 4.151923
34.900000 -85.700000 4.153150
35.200000 -85.700000 4.153684
35.500000 -85.700000 4.152905
35.800000 -85.700000 4.150807
36.100000 -85.700000 4.145901
36.400000 -85.700000 4.141503
36.700000 -85.700000 4.138407
37.000000 -85.700000 4.138829
37.300000 -85.700000 4.142763
37.600000 -85.700000 4.148962
37.900000 -85.700000 4.156623
38.200000 -85.700000 4.165668
38.500000 -85.700000 4.175309
38.800000 -85.700000 4.187216
39.100000 -85.700000 4.200966
39.400000 -85.700000 4.216037
39.700000 -85.700000 4.229781
40.000000 -85.700000 4.239270
40.300000 -85.700000 4.240252
40.600000 -85.700000 4.234186
40.900000 -85.700000 4.225980
41.200000 -85.700000 4.220287
41.500000 -85.700000 4.219560
41.800000 -85.700000 4.222234
42.100000 -85.700000 4.222993
42.400000 -85.700000 4.216571
42.700000 -85.700000 4.203791
43.000000 -85.700000 4.192310
43.300000 -85.700000 4.186024
43.600000 -85.700000 4.180539
43.900000 -85.700000 4.175819
44.200000 -85.700000 4.172390
44.500000 -85.700000 4.167229
44.800000 -85.700000 4.160984
45.100000 -85.700000 4.155864
45.400000 -85.700000 4.155400
45.700000 -85.700000 4.155385
46.000000 -85.700000 4.155379
46.300000 -85.700000 4.156595
30.100000 -85.400000 4.094811
30.400000 -85.400000 4.103249
30.700000 -85.400000 4.112506
31.000000 -85.400000 4.126970
31.300000 -85.400000 4.137998
31.600000 -85.400000 4.143761
31.900000 -85.400000 4.143785
32.200000 -85.400000 4.140246
32.500000 -85.400000 4.137091
32.800000 -85.400000 4.135315
33.100000 -85.400000 4.134830
33.400000 -85.400000 4.135572
33.700000 -85.400000 4.137423
34.000000 -85.400000 4.139213
34.300000 -85.400000 4.139685
34.600000 -85.400000 4.141261
34.900000 -85.400000 4.144369
35.200000 -85.400000 4.147862
35.500000 -85.400000 4.149762
35.800000 -85.400000 4.149686
36.100000 -85.400000 4.146632
36.400000 -85.400000 4.141465
36.700000 -85.400000 4.136973
37.000000 -85.400000 4.135790
37.300000 -85.400000 4.138521
37.600000 -85.400000 4.144041
37.900000 -85.400000 4.152503
38.200000 -85.400000 4.163214
38.500000 -85.400000 4.176200
38.800000 -85.400000 4.191369
39.100000 -85.400000 4.208944
39.400000 -85.400000 4.226512
39.700000 -85.400000 4.242717
40.000000 -85.400000 4.252559
40.300000 -85.400000 4.253379
40.600000 -85.400000 4.247441
40.900000 -85.400000 4.238987
41.200000 -85.400000 4.232826
41.500000 -85.400000 4.231402
41.800000 -85.400000 4.230989
42.100000 -85.400000 4.223385
42.400000 -85.400000 4.213246
42.700000 -85.400000 4.200145
43.000000 -85.400000 4.188433
43.300000 -85.400000 4.181877
43.600000 -85.400000 4.175797
43.900000 -85.400000 4.171088
44.200000 -85.400000 4.168035
44.500000 -85.400000 4.163975
44.800000 -85.400000 4.158908
45.100000 -85.400000 4.155795
45.400000 -85.400000 4.155736
45.700000 -85.400000 4.155456
46.000000 -85.400000 4.156152
46.300000 -85.400000 4.157866
30.100000 -85.100000 4.094814
30.400000 -85.100000 4.104017
30.700000 -85.100000 4.115591
31.000000 -85.100000 4.130553
31.300000 -85.100000 4.141242
31.600000 -85.100000 4.145904
31.900000 -85.100000 4.143388
32.200000 -85.100000 4.138056
32.500000 -85.100000 4.132011
32.800000 -85.100000 4.128044
33.100000 -85.100000 4.126294
33.400000 -85.100000 4.127129
33.700000 -85.100000 4.128288
34.000000 -85.100000 4.129047
34.300000 -85.100000 4.129540
34.600000 -85.100000 4.131397
34.900000 -85.100000 4.135494
35.200000 -85.100000 4.140826
35.500000 -85.100000 4.145606
35.800000 -85.100000 4.148132
36.100000 -85.100000 4.146390
36.400000 -85.100000 4.141118
36.700000 -85.100000 4.136271
37.000000 -85.100000 4.133939
37.300000 -85.100000 4.135206
37.600000 -85.100000 4.138637
37.900000 -85.100000 4.146579
38.200000 -85.100000 4.157689
38.500000 -85.100000 4.173558
38.800000 -85.100000 4.192221
39.100000 -85.100000 4.211925
39.400000 -85.100000 4.231049
39.700000 -85.100000 4.246884
40.000000 -85.100000 4.255115
40.300000 -85.100000 4.256530
40.600000 -85.100000 4.251287
40.900000 -85.100000 4.242844
41.200000 -85.100000 4.236508
41.500000 -85.100000 4.233607
41.800000 -85.100000 4.230033
42.100000 -85.100000 4.219062
42.400000 -85.100000 4.206164
42.700000 -85.100000 4.192354
43.000000 -85.100000 4.181049
43.300000 -85.100000 4.174317
43.600000 -85.100000 4.170207
43.900000 -85.100000 4.167524
44.200000 -85.100000 4.164612
44.500000 -85.100000 4.160529
44.800000 -85.100000 4.156393
45.100000 -85.100000 4.154329
45.400000 -85.100000 4.155261
45.700000 -85.100000 4.155750
46.000000 -85.100000 4.156901
46.300000 -85.100000 4.159581
30.100000 -84.800000 4.093161
30.400000 -84.800000 4.103084
30.700000 -84.800000 4.115004
31.000000 -84.800000 4.130267
31.300000 -84.800000 4.141346
31.600000 -84.800000 4.146202
31.900000 -84.800000 4.143460
32.200000 -84.800000 4.137154
32.500000 -84.800000 4.129865
32.800000 -84.800000 4.124195
33.100000 -84.800000 4.121851
33.400000 -84.800000 4.122179
33.700000 -84.800000 4.122831
34.000000 -84.800000 4.122307
34.300000 -84.800000 4.122456
34.600000 -84.800000 4.123981
34.900000 -84.800000 4.128674
35.200000 -84.800000 4.135082
35.500000 -84.800000 4.142274
35.800000 -84.800000 4.146834
36.100000 -84.800000 4.146168
36.400000 -84.800000 4.141632
36.700000 -84.800000 4.137370
37.000000 -84.800000 4.133883
37.300000 -84.800000 4.132653
37.600000 -84.800000 4.134765
37.900000 -84.800000 4.140963
38.200000 -84.800000 4.151999
38.500000 -84.800000 4.167537
38.800000 -84.800000 4.186419
39.100000 -84.800000 4.206838
39.400000 -84.800000 4.225153
39.700000 -84.800000 4.238977
40.000000 -84.800000 4.247556
40.300000 -84.800000 4.248296
40.600000 -84.800000 4.243241
40.900000 -84.800000 4.235616
41.200000 -84.800000 4.229828
41.500000 -84.800000 4.226217
41.800000 -84.800000 4.220421
42.100000 -84.800000 4.208435
42.400000 -84.800000 4.194664
42.700000 -84.800000 4.180986
43.000000 -84.800000 4.170469
43.300000 -84.800000 4.165523
43.600000 -84.800000 4.163714
43.900000 -84.800000 4.162613
44.200000 -84.800000 4.159985
44.500000 -84.800000 4.156902
44.800000 -84.800000 4.155553
45.100000 -84.800000 4.154774
45.400000 -84.800000 4.155579
45.700000 -84.800000 4.156825
46.000000 -84.800000 4.157219
46.300000 -84.800000 4.159675
30.100000 -84.500000 4.089597
30.400000 -84.500000 4.099522
30.700000 -84.500000 4.111789
31.000000 -84.500000 4.126557
31.300000 -84.500000 4.138509
31.600000 -84.500000 4.143366
31.900000 -84.500000 4.142544
32.200000 -84.500000 4.137418
32.500000 -84.500000 4.132204
32.800000 -84.500000 4.126325
33.100000 -84.500000 4.122269
33.400000 -84.500000 4.120668
33.700000 -84.500000 4.120395
34.000000 -84.500000 4.119480
34.300000 -84.500000 4.119610
34.600000 -84.500000 4.121504
34.900000 -84.500000 4.125846
35.200000 -84.500000 4.132372
35.500000 -84.500000 4.139796
35.800000 -84.500000 4.145844
36.100000 -84.500000 4.146912
36.400000 -84.500000 4.144391
36.700000 -84.500000 4.140636
37.000000 -84.500000 4.136319
37.300000 -84.500000 4.132852
37.600000 -84.500000 4.133178
37.900000 -84.500000 4.137608
38.200000 -84.500000 4.146728
38.500000 -84.500000 4.160277
38.800000 -84.500000 4.176301
39.100000 -84.500000 4.193879
39.400000 -84.500000 4.210629
39.700000 -84.500000 4.222732
40.000000 -84.500000 4.229973
40.300000 -84.500000 4.231204
40.600000 -84.500000 4.226560
40.900000 -84.500000 4.220820
41.200000 -84.500000 4.215956
41.500000 -84.500000 4.211245
41.800000 -84.500000 4.204972
42.100000 -84.500000 4.193428
42.400000 -84.500000 4.180974
42.700000 -84.500000 4.168405
43.000000 -84.500000 4.160635
43.300000 -84.500000 4.157426
43.600000 -84.500000 4.157667
43.900000 -84.500000 4.158222
44.200000 -84.500000 4.157504
44.500000 -84.500000 4.156343
44.800000 -84.500000 4.156249
45.100000 -84.500000 4.156435
45.400000 -84.500000 4.156957
45.700000 -84.500000 4.157694
46.000000 -84.500000 4.159388
46.300000 -84.500000 4.159713
46.600000 -84.500000 4.157721
30.100000 -84.200000 4.087127
30.400000 -84.200000 4.095200
30.700000 -84.200000 4.106479
31.000000 -84.200000 4.119940
31.300000 -84.200000 4.132233
31.600000 -84.200000 4.139799
31.900000 -84.200000 4.142219
32.200000 -84.200000 4.139969
32.500000 -84.200000 4.136511
32.800000 -84.200000 4.131577
33.100000 -84.200000 4.127034
33.400000 -84.200000 4.124015
33.700000 -84.200000 4.122270
34.000000 -84.200000 4.120802
34.300000 -84.200000 4.120001
34.600000 -84.200000 4.121639
34.900000 -84.200000 4.124948
35.200000 -84.200000 4.131281
35.500000 -84.200000 4.138077
35.800000 -84.200000 4.144402
36.100000 -84.200000 4.147612
36.400000 -84.200000 4.147485
36.700000 -84.200000 4.145686
37.000000 -84.200000 4.140978
37.300000 -84.200000 4.136204
37.600000 -84.200000 4.134748
37.900000 -84.200000 4.136633
38.200000 -84.200000 4.142647
38.500000 -84.200000 4.152886
38.800000 -84.200000 4.165107
39.100000 -84.200000 4.179146
39.400000 -84.200000 4.192575
39.700000 -84.200000 4.202484
40.000000 -84.200000 4.208023
40.300000 -84.200000 4.209370
40.600000 -84.200000 4.206863
40.900000 -84.200000 4.203308
41.200000 -84.200000 4.199803
41.500000 -84.200000 4.194807
41.800000 -84.200000 4.187868
42.100000 -84.200000 4.178161
42.400000 -84.200000 4.168394
42.700000 -84.200000 4.158734
43.000000 -84.200000 4.153845
43.300000 -84.200000 4.152381
43.600000 -84.200000 4.153478
43.900000 -84.200000 4.155788
44.200000 -84.200000 4.155933
44.500000 -84.200000 4.155480
44.800000 -84.200000 4.155292
45.100000 -84.200000 4.157790
45.400000 -84.200000 4.160304
45.700000 -84.200000 4.161333
46.000000 -84.200000 4.160879
46.300000 -84.200000 4.159246
46.600000 -84.200000 4.159194
29.800000 -83.900000 4.079492
30.100000 -83.900000 4.083314
30.400000 -83.900000 4.089739
30.700000 -83.900000 4.100086
31.000000 -83.900000 4.112845
31.300000 -83.900000 4.124695
31.600000 -83.900000 4.134858
31.900000 -83.900000 4.140824
32.200000 -83.900000 4.143012
32.500000 -83.900000 4.142233
32.800000 -83.900000 4.138658
33.100000 -83.900000 4.133369
33.400000 -83.900000 4.128603
33.700000 -83.900000 4.125236
34.000000 -83.900000 4.122527
34.300000 -83.900000 4.120982
34.600000 -83.900000 4.121524
34.900000 -83.900000 4.124202
35.200000 -83.900000 4.128993
35.500000 -83.900000 4.135508
35.800000 -83.900000 4.140823
36.100000 -83.900000 4.146127
36.400000 -83.900000 4.149125
36.700000 -83.900000 4.149240
37.000000 -83.900000 4.146000
37.300000 -83.900000 4.141843
37.600000 -83.900000 4.138032
37.900000 -83.900000 4.137824
38.200000 -83.900000 4.140312
38.500000 -83.900000 4.146770
38.800000 -83.900000 4.156299
39.100000 -83.900000 4.167469
39.400000 -83.900000 4.177202
39.700000 -83.900000 4.183719
40.000000 -83.900000 4.188094
40.300000 -83.900000 4.188932
40.600000 -83.900000 4.188874
40.900000 -83.900000 4.187717
41.200000 -83.900000 4.185491
41.500000 -83.900000 4.180557
41.800000 -83.900000 4.173560
42.100000 -83.900000 4.164331
42.400000 -83.900000 4.158080
42.700000 -83.900000 4.152549
43.000000 -83.900000 4.150393
43.300000 -83.900000 4.151346
43.600000 -83.900000 4.154449
43.900000 -83.900000 4.156782
44.200000 -83.900000 4.156637
44.500000 -83.900000 4.156523
44.800000 -83.900000 4.158451
45.100000 -83.900000 4.162354
45.400000 -83.900000 4.164712
46.000000 -83.900000 4.163154
46.300000 -83.900000 4.161087
46.600000 -83.900000 4.160882
29.500000 -83.600000 4.077782
29.800000 -83.600000 4.078137
30.100000 -83.600000 4.080466
30.400000 -83.600000 4.084863
30.700000 -83.600000 4.093877
31.000000 -83.600000 4.104989
31.300000 -83.600000 4.115890
31.600000 -83.600000 4.127654
31.900000 -83.600000 4.136883
32.200000 -83.600000 4.141909
32.500000 -83.600000 4.143328
32.800000 -83.600000 4.142038
33.100000 -83.600000 4.137688
33.400000 -83.600000 4.131622
33.700000 -83.600000 4.126587
34.000000 -83.600000 4.123291
34.300000 -83.600000 4.121091
34.600000 -83.600000 4.120431
34.900000 -83.600000 4.121819
35.200000 -83.600000 4.124937
35.500000 -83.600000 4.130002
35.800000 -83.600000 4.134826
36.100000 -83.600000 4.141655
36.400000 -83.600000 4.146938
36.700000 -83.600000 4.150011
37.000000 -83.600000 4.149297
37.300000 -83.600000 4.146624
37.600000 -83.600000 4.141919
37.900000 -83.600000 4.139891
38.200000 -83.600000 4.140178
38.500000 -83.600000 4.144146
38.800000 -83.600000 4.151878
39.100000 -83.600000 4.160701
39.400000 -83.600000 4.167338
39.700000 -83.600000 4.172348
40.000000 -83.600000 4.173839
40.300000 -83.600000 4.174986
40.600000 -83.600000 4.175820
40.900000 -83.600000 4.176470
41.200000 -83.600000 4.175015
41.500000 -83.600000 4.171282
41.800000 -83.600000 4.163776
42.100000 -83.600000 4.156089
42.400000 -83.600000 4.153046
42.700000 -83.600000 4.150873
43.000000 -83.600000 4.151095
43.300000 -83.600000 4.153637
43.600000 -83.600000 4.157795
43.900000 -83.600000 4.159136
44.200000 -83.600000 4.159412
44.500000 -83.600000 4.161129
44.800000 -83.600000 4.165325
45.100000 -83.600000 4.167378
45.400000 -83.600000 4.168441
46.000000 -83.600000 4.167469
46.300000 -83.600000 4.163682
46.600000 -83.600000 4.162727
46.900000 -83.600000 4.161382
29.200000 -83.300000 4.078336
29.500000 -83.300000 4.075630
29.800000 -83.300000 4.074688
30.100000 -83.300000 4.076060
30.400000 -83.300000 4.080248
30.700000 -83.300000 4.087856
31.000000 -83.300000 4.097126
31.300000 -83.300000 4.107428
31.600000 -83.300000 4.118671
31.900000 -83.300000 4.129086
32.200000 -83.300000 4.135966
32.500000 -83.300000 4.139289
32.800000 -83.300000 4.139385
33.100000 -83.300000 4.136211
33.400000 -83.300000 4.131550
33.700000 -83.300000 4.127658
34.000000 -83.300000 4.124242
34.300000 -83.300000 4.121527
34.600000 -83.300000 4.119443
34.900000 -83.300000 4.118951
35.200000 -83.300000 4.118914
35.500000 -83.300000 4.122178
35.800000 -83.300000 4.127452
36.100000 -83.300000 4.135301
36.400000 -83.300000 4.143131
36.700000 -83.300000 4.148917
37.000000 -83.300000 4.151074
37.300000 -83.300000 4.149834
37.600000 -83.300000 4.145582
37.900000 -83.300000 4.142596
38.200000 -83.300000 4.142555
38.500000 -83.300000 4.145813
38.800000 -83.300000 4.152796
39.100000 -83.300000 4.159066
39.400000 -83.300000 4.163930
39.700000 -83.300000 4.167445
40.000000 -83.300000 4.167675
40.300000 -83.300000 4.167315
40.600000 -83.300000 4.168745
40.900000 -83.300000 4.170332
41.200000 -83.300000 4.169479
41.500000 -83.300000 4.166122
41.800000 -83.300000 4.158999
42.100000 -83.300000 4.152741
42.400000 -83.300000 4.152600
42.700000 -83.300000 4.151303
43.000000 -83.300000 4.155301
43.300000 -83.300000 4.159843
43.600000 -83.300000 4.163643
43.900000 -83.300000 4.164506
44.200000 -83.300000 4.165917
45.400000 -83.300000 4.172804
45.700000 -83.300000 4.170332
46.000000 -83.300000 4.169217
46.300000 -83.300000 4.166085
46.600000 -83.300000 4.164577
46.900000 -83.300000 4.162664
29.200000 -83.000000 4.078643
29.500000 -83.000000 4.073832
29.800000 -83.000000 4.072383
30.100000 -83.000000 4.071384
30.400000 -83.000000 4.074400
30.700000 -83.000000 4.080352
31.000000 -83.000000 4.089739
31.300000 -83.000000 4.100665
31.600000 -83.000000 4.111342
31.900000 -83.000000 4.121102
32.200000 -83.000000 4.127960
32.500000 -83.000000 4.131732
32.800000 -83.000000 4.132470
33.100000 -83.000000 4.132200
33.400000 -83.000000 4.130661
33.700000 -83.000000 4.128969
34.000000 -83.000000 4.126896
34.300000 -83.000000 4.123780
34.600000 -83.000000 4.120443
34.900000 -83.000000 4.116684
35.200000 -83.000000 4.114978
35.500000 -83.000000 4.115438
35.800000 -83.000000 4.121526
36.100000 -83.000000 4.129700
36.400000 -83.000000 4.140133
36.700000 -83.000000 4.147021
37.000000 -83.000000 4.151349
37.300000 -83.000000 4.152088
37.600000 -83.000000 4.149243
37.900000 -83.000000 4.146889
38.200000 -83.000000 4.147541
38.500000 -83.000000 4.151490
38.800000 -83.000000 4.157445
39.100000 -83.000000 4.162302
39.400000 -83.000000 4.165707
39.700000 -83.000000 4.167900
40.000000 -83.000000 4.167008
40.300000 -83.000000 4.164801
40.600000 -83.000000 4.166123
40.900000 -83.000000 4.167596
41.200000 -83.000000 4.167122
41.500000 -83.000000 4.164074
41.800000 -83.000000 4.159749
42.100000 -83.000000 4.156343
42.400000 -83.000000 4.157013
42.700000 -83.000000 4.158270
43.000000 -83.000000 4.163222
43.600000 -83.000000 4.170010
43.900000 -83.000000 4.171577
45.400000 -83.000000 4.175637
45.700000 -83.000000 4.172596
46.000000 -83.000000 4.169319
46.300000 -83.000000 4.166204
46.600000 -83.000000 4.164591
46.900000 -83.000000 4.164103
28.600000 -82.700000 4.093518
28.900000 -82.700000 4.085951
29.200000 -82.700000 4.079744
29.500000 -82.700000 4.073123
29.800000 -82.700000 4.068943
30.100000 -82.700000 4.066542
30.400000 -82.700000 4.069305
30.700000 -82.700000 4.075170
31.000000 -82.700000 4.084163
31.300000 -82.700000 4.095865
31.600000 -82.700000 4.106572
31.900000 -82.700000 4.114843
32.200000 -82.700000 4.120619
32.500000 -82.700000 4.123902
32.800000 -82.700000 4.125404
33.100000 -82.700000 4.127244
33.400000 -82.700000 4.130110
33.700000 -82.700000 4.132417
34.000000 -82.700000 4.132321
34.300000 -82.700000 4.129109
34.600000 -82.700000 4.124471
34.900000 -82.700000 4.118973
35.200000 -82.700000 4.114556
35.500000 -82.700000 4.114336
35.800000 -82.700000 4.119173
36.100000 -82.700000 4.127292
36.400000 -82.700000 4.137354
36.700000 -82.700000 4.146470
37.000000 -82.700000 4.151318
37.300000 -82.700000 4.153292
37.600000 -82.700000 4.153320
37.900000 -82.700000 4.153315
38.200000 -82.700000 4.155237
38.500000 -82.700000 4.159513
38.800000 -82.700000 4.164535
39.100000 -82.700000 4.168749
39.400000 -82.700000 4.171250
39.700000 -82.700000 4.171442
40.000000 -82.700000 4.169095
40.300000 -82.700000 4.166547
40.600000 -82.700000 4.165993
40.900000 -82.700000 4.166705
41.200000 -82.700000 4.166589
41.500000 -82.700000 4.165443
41.800000 -82.700000 4.161848
42.100000 -82.700000 4.162407
42.400000 -82.700000 4.163614
42.700000 -82.700000 4.166018
45.700000 -82.700000 4.172766
46.000000 -82.700000 4.171019
46.300000 -82.700000 4.168037
46.600000 -82.700000 4.164928
46.900000 -82.700000 4.162895
27.400000 -82.400000 4.099875
27.700000 -82.400000 4.101311
28.000000 -82.400000 4.100595
28.300000 -82.400000 4.100879
28.600000 -82.400000 4.097775
28.900000 -82.400000 4.090514
29.200000 -82.400000 4.079969
29.500000 -82.400000 4.072070
29.800000 -82.400000 4.065441
30.100000 -82.400000 4.062944
30.400000 -82.400000 4.064500
30.700000 -82.400000 4.071919
31.000000 -82.400000 4.081628
31.300000 -82.400000 4.093829
31.600000 -82.400000 4.104272
31.900000 -82.400000 4.110852
32.200000 -82.400000 4.115402
32.500000 -82.400000 4.117655
32.800000 -82.400000 4.120343
33.100000 -82.400000 4.125449
33.400000 -82.400000 4.131777
33.700000 -82.400000 4.137145
34.000000 -82.400000 4.139496
34.300000 -82.400000 4.137032
34.600000 -82.400000 4.131893
34.900000 -82.400000 4.125253
35.200000 -82.400000 4.120145
35.500000 -82.400000 4.118225
35.800000 -82.400000 4.121510
36.100000 -82.400000 4.128788
36.400000 -82.400000 4.137748
36.700000 -82.400000 4.147066
37.000000 -82.400000 4.151922
37.300000 -82.400000 4.155350
37.600000 -82.400000 4.157748
37.900000 -82.400000 4.160320
38.200000 -82.400000 4.163071
38.500000 -82.400000 4.167263
38.800000 -82.400000 4.171329
39.100000 -82.400000 4.175203
39.400000 -82.400000 4.175920
39.700000 -82.400000 4.174394
40.000000 -82.400000 4.170887
40.300000 -82.400000 4.168625
40.600000 -82.400000 4.165895
40.900000 -82.400000 4.166693
41.200000 -82.400000 4.167820
41.500000 -82.400000 4.168202
41.800000 -82.400000 4.165509
42.100000 -82.400000 4.169176
42.400000 -82.400000 4.172982
42.700000 -82.400000 4.175721
45.700000 -82.400000 4.172035
46.000000 -82.400000 4.169505
46.300000 -82.400000 4.168024
46.900000 -82.400000 4.165443
27.100000 -82.100000 4.104255
27.400000 -82.100000 4.104884
27.700000 -82.100000 4.105767
28.000000 -82.100000 4.105477
28.300000 -82.100000 4.105322
28.600000 -82.100000 4.101083
28.900000 -82.100000 4.093055
29.200000 -82.100000 4.081006
29.500000 -82.100000 4.071561
29.800000 -82.100000 4.063898
30.100000 -82.100000 4.060495
30.400000 -82.100000 4.062048
30.700000 -82.100000 4.070990
31.000000 -82.100000 4.082298
31.300000 -82.100000 4.093646
31.600000 -82.100000 4.103899
31.900000 -82.100000 4.110540
32.200000 -82.100000 4.113627
32.500000 -82.100000 4.114066
32.800000 -82.100000 4.118144
33.100000 -82.100000 4.125688
33.400000 -82.100000 4.134474
33.700000 -82.100000 4.141768
34.000000 -82.100000 4.145768
34.300000 -82.100000 4.144526
34.600000 -82.100000 4.139752
34.900000 -82.100000 4.133909
35.200000 -82.100000 4.127960
35.500000 -82.100000 4.125645
35.800000 -82.100000 4.127221
36.100000 -82.100000 4.132892
36.400000 -82.100000 4.140626
36.700000 -82.100000 4.147852
37.000000 -82.100000 4.153614
37.300000 -82.100000 4.155967
37.600000 -82.100000 4.159549
37.900000 -82.100000 4.163774
38.200000 -82.100000 4.167147
38.500000 -82.100000 4.170706
38.800000 -82.100000 4.174322
39.100000 -82.100000 4.177018
39.400000 -82.100000 4.177017
39.700000 -82.100000 4.173328
40.000000 -82.100000 4.169979
40.300000 -82.100000 4.167691
40.600000 -82.100000 4.165854
40.900000 -82.100000 4.166771
41.200000 -82.100000 4.169418
41.500000 -82.100000 4.170396
41.800000 -82.100000 4.171242
42.100000 -82.100000 4.174956
42.400000 -82.100000 4.178407
42.700000 -82.100000 4.181741
43.000000 -82.100000 4.185605
45.700000 -82.100000 4.171749
46.000000 -82.100000 4.168669
46.300000 -82.100000 4.166942
46.600000 -82.100000 4.164926
46.900000 -82.100000 4.164169
26.500000 -81.800000 4.105388
26.800000 -81.800000 4.106966
27.100000 -81.800000 4.106906
27.400000 -81.800000 4.107408
27.700000 -81.800000 4.107096
28.000000 -81.800000 4.108356
28.300000 -81.800000 4.109115
28.600000 -81.800000 4.105458
28.900000 -81.800000 4.095230
29.200000 -81.800000 4.083100
29.500000 -81.800000 4.073113
29.800000 -81.800000 4.065462
30.100000 -81.800000 4.059491
30.400000 -81.800000 4.061698
30.700000 -81.800000 4.071608
31.000000 -81.800000 4.084775
31.300000 -81.800000 4.096923
31.600000 -81.800000 4.106180
31.900000 -81.800000 4.109910
32.200000 -81.800000 4.112105
32.500000 -81.800000 4.113394
32.800000 -81.800000 4.118468
33.100000 -81.800000 4.126445
33.400000 -81.800000 4.135204
33.700000 -81.800000 4.143432
34.000000 -81.800000 4.148686
34.300000 -81.800000 4.149018
34.600000 -81.800000 4.145767
34.900000 -81.800000 4.140669
35.200000 -81.800000 4.135792
35.500000 -81.800000 4.132603
35.800000 -81.800000 4.133246
36.100000 -81.800000 4.137299
36.400000 -81.800000 4.142639
36.700000 -81.800000 4.148485
37.000000 -81.800000 4.152321
37.300000 -81.800000 4.154014
37.600000 -81.800000 4.155744
37.900000 -81.800000 4.159950
38.200000 -81.800000 4.163877
38.500000 -81.800000 4.167759
38.800000 -81.800000 4.171125
39.100000 -81.800000 4.172335
39.400000 -81.800000 4.171513
