39.400000 -94.400000 4.131817
39.700000 -94.400000 4.135766
40.000000 -94.400000 4.138934
40.300000 -94.400000 4.136720
40.600000 -94.400000 4.129541
40.900000 -94.400000 4.118289
41.200000 -94.400000 4.109810
41.500000 -94.400000 4.105751
41.800000 -94.400000 4.106071
42.100000 -94.400000 4.108098
42.400000 -94.400000 4.114927
42.700000 -94.400000 4.127768
43.000000 -94.400000 4.145774
43.300000 -94.400000 4.162825
43.600000 -94.400000 4.169612
43.900000 -94.400000 4.166541
44.200000 -94.400000 4.156334
44.500000 -94.400000 4.146714
44.800000 -94.400000 4.139385
45.100000 -94.400000 4.136252
45.400000 -94.400000 4.135379
45.700000 -94.400000 4.136916
46.000000 -94.400000 4.140729
46.300000 -94.400000 4.149561
46.600000 -94.400000 4.163421
46.900000 -94.400000 4.181551
47.200000 -94.400000 4.197848
47.500000 -94.400000 4.210543
47.800000 -94.400000 4.214595
48.100000 -94.400000 4.214368
30.100000 -94.100000 3.977835
30.400000 -94.100000 3.988335
30.700000 -94.100000 4.000623
31.000000 -94.100000 4.004402
31.300000 -94.100000 4.001739
31.600000 -94.100000 3.998751
31.900000 -94.100000 3.997484
32.200000 -94.100000 3.995971
32.500000 -94.100000 3.993571
32.800000 -94.100000 3.991340
33.100000 -94.100000 3.992364
33.400000 -94.100000 3.998677
33.700000 -94.100000 4.009609
34.000000 -94.100000 4.019725
34.300000 -94.100000 4.023720
34.600000 -94.100000 4.026473
34.900000 -94.100000 4.038136
35.200000 -94.100000 4.060816
35.500000 -94.100000 4.085915
35.800000 -94.100000 4.109969
36.100000 -94.100000 4.130166
36.400000 -94.100000 4.143490
36.700000 -94.100000 4.147660
37.000000 -94.100000 4.147880
37.300000 -94.100000 4.150087
37.600000 -94.100000 4.155476
37.900000 -94.100000 4.160611
38.200000 -94.100000 4.160659
38.500000 -94.100000 4.153146
38.800000 -94.100000 4.141788
39.100000 -94.100000 4.132763
39.400000 -94.100000 4.130843
39.700000 -94.100000 4.134927
40.000000 -94.100000 4.141832
40.300000 -94.100000 4.142761
40.600000 -94.100000 4.137011
40.900000 -94.100000 4.125185
41.200000 -94.100000 4.113523
41.500000 -94.100000 4.105932
41.800000 -94.100000 4.106140
42.100000 -94.100000 4.109182
42.400000 -94.100000 4.117058
42.700000 -94.100000 4.129603
43.000000 -94.100000 4.145703
43.300000 -94.100000 4.159875
43.600000 -94.100000 4.163974
43.900000 -94.100000 4.159385
44.200000 -94.100000 4.149041
44.500000 -94.100000 4.140177
44.800000 -94.100000 4.133616
45.100000 -94.100000 4.130815
45.400000 -94.100000 4.129692
45.700000 -94.100000 4.131290
46.000000 -94.100000 4.135478
46.300000 -94.100000 4.144920
46.600000 -94.100000 4.158683
46.900000 -94.100000 4.176391
47.200000 -94.100000 4.192050
47.500000 -94.100000 4.204606
47.800000 -94.100000 4.209630
48.100000 -94.100000 4.211947
30.100000 -93.800000 3.971897
30.400000 -93.800000 3.986940
30.700000 -93.800000 3.999013
31.000000 -93.800000 4.001945
31.300000 -93.800000 3.998556
31.600000 -93.800000 3.995455
31.900000 -93.800000 3.995649
32.200000 -93.800000 3.996441
32.500000 -93.800000 3.995362
32.800000 -93.800000 3.993185
33.100000 -93.800000 3.989778
33.400000 -93.800000 3.991471
33.700000 -93.800000 3.998940
34.000000 -93.800000 4.008743
34.300000 -93.800000 4.014138
34.600000 -93.800000 4.020114
34.900000 -93.800000 4.033149
35.200000 -93.800000 4.055352
35.500000 -93.800000 4.079456
35.800000 -93.800000 4.102575
36.100000 -93.800000 4.122748
36.400000 -93.800000 4.136683
36.700000 -93.800000 4.140869
37.000000 -93.800000 4.141171
37.300000 -93.800000 4.145457
37.600000 -93.800000 4.155020
37.900000 -93.800000 4.165696
38.200000 -93.800000 4.169952
38.500000 -93.800000 4.163498
38.800000 -93.800000 4.149843
39.100000 -93.800000 4.136906
39.400000 -93.800000 4.131679
39.700000 -93.800000 4.134746
40.000000 -93.800000 4.142102
40.300000 -93.800000 4.146071
40.600000 -93.800000 4.142847
40.900000 -93.800000 4.133055
41.200000 -93.800000 4.120313
41.500000 -93.800000 4.110454
41.800000 -93.800000 4.110448
42.100000 -93.800000 4.114790
42.400000 -93.800000 4.123555
42.700000 -93.800000 4.135338
43.000000 -93.800000 4.148744
43.300000 -93.800000 4.158525
43.600000 -93.800000 4.158314
43.900000 -93.800000 4.150631
44.200000 -93.800000 4.139149
44.500000 -93.800000 4.130401
44.800000 -93.800000 4.124420
45.100000 -93.800000 4.122428
45.400000 -93.800000 4.121919
45.700000 -93.800000 4.125008
46.000000 -93.800000 4.131145
46.300000 -93.800000 4.142343
46.600000 -93.800000 4.156252
46.900000 -93.800000 4.172585
47.200000 -93.800000 4.186863
47.500000 -93.800000 4.197264
48.100000 -93.800000 4.206441
29.800000 -93.500000 3.954303
30.100000 -93.500000 3.967456
30.400000 -93.500000 3.985455
30.700000 -93.500000 3.996809
31.000000 -93.500000 3.998696
31.300000 -93.500000 3.995109
31.600000 -93.500000 3.992292
31.900000 -93.500000 3.993197
32.200000 -93.500000 3.995822
32.500000 -93.500000 3.996760
32.800000 -93.500000 3.994655
33.100000 -93.500000 3.991067
33.400000 -93.500000 3.989513
33.700000 -93.500000 3.994783
34.000000 -93.500000 4.002891
34.300000 -93.500000 4.010544
34.600000 -93.500000 4.018657
34.900000 -93.500000 4.032911
35.200000 -93.500000 4.054397
35.500000 -93.500000 4.076715
35.800000 -93.500000 4.098995
36.100000 -93.500000 4.117392
36.400000 -93.500000 4.128848
36.700000 -93.500000 4.132308
37.000000 -93.500000 4.131492
37.300000 -93.500000 4.135819
37.600000 -93.500000 4.148281
37.900000 -93.500000 4.163155
38.200000 -93.500000 4.171547
38.500000 -93.500000 4.169187
38.800000 -93.500000 4.157225
39.100000 -93.500000 4.142122
39.400000 -93.500000 4.133904
39.700000 -93.500000 4.134831
40.000000 -93.500000 4.141616
40.300000 -93.500000 4.147356
40.600000 -93.500000 4.147503
40.900000 -93.500000 4.141259
41.200000 -93.500000 4.129414
41.500000 -93.500000 4.120007
41.800000 -93.500000 4.120173
42.100000 -93.500000 4.125832
42.400000 -93.500000 4.135195
42.700000 -93.500000 4.145396
43.000000 -93.500000 4.155143
43.300000 -93.500000 4.159671
43.600000 -93.500000 4.154520
43.900000 -93.500000 4.143094
44.200000 -93.500000 4.129751
44.500000 -93.500000 4.120395
44.800000 -93.500000 4.115163
45.100000 -93.500000 4.113200
45.400000 -93.500000 4.113600
45.700000 -93.500000 4.118011
46.000000 -93.500000 4.127391
46.300000 -93.500000 4.141204
46.600000 -93.500000 4.155755
46.900000 -93.500000 4.169985
47.200000 -93.500000 4.181543
47.500000 -93.500000 4.190054
47.800000 -93.500000 4.197173
48.100000 -93.500000 4.202303
29.800000 -93.200000 3.952406
30.100000 -93.200000 3.963098
30.400000 -93.200000 3.981534
30.700000 -93.200000 3.992453
31.000000 -93.200000 3.994047
31.300000 -93.200000 3.991602
31.600000 -93.200000 3.989625
31.900000 -93.200000 3.991616
32.200000 -93.200000 3.994923
32.500000 -93.200000 3.997590
32.800000 -93.200000 3.996483
33.100000 -93.200000 3.994162
33.400000 -93.200000 3.992586
33.700000 -93.200000 3.996379
34.000000 -93.200000 4.003554
34.300000 -93.200000 4.012414
34.600000 -93.200000 4.022052
34.900000 -93.200000 4.036442
35.200000 -93.200000 4.054197
35.500000 -93.200000 4.075078
35.800000 -93.200000 4.095528
36.100000 -93.200000 4.111590
36.400000 -93.200000 4.121467
36.700000 -93.200000 4.122900
37.000000 -93.200000 4.121573
37.300000 -93.200000 4.125903
37.600000 -93.200000 4.137649
37.900000 -93.200000 4.153935
38.200000 -93.200000 4.166200
38.500000 -93.200000 4.168908
38.800000 -93.200000 4.160745
39.100000 -93.200000 4.147125
39.400000 -93.200000 4.137482
39.700000 -93.200000 4.136380
40.000000 -93.200000 4.142020
40.300000 -93.200000 4.148507
40.600000 -93.200000 4.151830
40.900000 -93.200000 4.149168
41.200000 -93.200000 4.140136
41.500000 -93.200000 4.131211
41.800000 -93.200000 4.131479
42.100000 -93.200000 4.138546
42.400000 -93.200000 4.148563
42.700000 -93.200000 4.158066
43.000000 -93.200000 4.164094
43.300000 -93.200000 4.163245
43.600000 -93.200000 4.153317
43.900000 -93.200000 4.139094
44.200000 -93.200000 4.124542
44.500000 -93.200000 4.115404
44.800000 -93.200000 4.110718
45.100000 -93.200000 4.109080
45.400000 -93.200000 4.109530
45.700000 -93.200000 4.113937
46.000000 -93.200000 4.124882
46.300000 -93.200000 4.140393
46.600000 -93.200000 4.155560
46.900000 -93.200000 4.167885
47.200000 -93.200000 4.176188
47.500000 -93.200000 4.180847
47.800000 -93.200000 4.186571
29.800000 -92.900000 3.948168
30.100000 -92.900000 3.962826
30.400000 -92.900000 3.975058
30.700000 -92.900000 3.985871
31.000000 -92.900000 3.988492
31.300000 -92.900000 3.987724
31.600000 -92.900000 3.987991
31.900000 -92.900000 3.991131
32.200000 -92.900000 3.995158
32.500000 -92.900000 3.997780
32.800000 -92.900000 3.996936
33.100000 -92.900000 3.995330
33.400000 -92.900000 3.995012
33.700000 -92.900000 3.998811
34.000000 -92.900000 4.007230
34.300000 -92.900000 4.018339
34.600000 -92.900000 4.029093
34.900000 -92.900000 4.041536
35.200000 -92.900000 4.055700
35.500000 -92.900000 4.073778
35.800000 -92.900000 4.090798
36.100000 -92.900000 4.105775
36.400000 -92.900000 4.113074
36.700000 -92.900000 4.115073
37.000000 -92.900000 4.114701
37.300000 -92.900000 4.117314
37.600000 -92.900000 4.128127
37.900000 -92.900000 4.143001
38.200000 -92.900000 4.157426
38.500000 -92.900000 4.164784
38.800000 -92.900000 4.161151
39.100000 -92.900000 4.150643
39.400000 -92.900000 4.141227
39.700000 -92.900000 4.139267
40.000000 -92.900000 4.143338
40.300000 -92.900000 4.149941
40.600000 -92.900000 4.154769
40.900000 -92.900000 4.154796
41.200000 -92.900000 4.149535
41.500000 -92.900000 4.143877
41.800000 -92.900000 4.144973
42.100000 -92.900000 4.152882
42.400000 -92.900000 4.162758
42.700000 -92.900000 4.172126
43.000000 -92.900000 4.174897
43.300000 -92.900000 4.169560
43.600000 -92.900000 4.155879
43.900000 -92.900000 4.140130
44.200000 -92.900000 4.125270
44.500000 -92.900000 4.115555
44.800000 -92.900000 4.110377
45.100000 -92.900000 4.107710
45.400000 -92.900000 4.107684
45.700000 -92.900000 4.110986
46.000000 -92.900000 4.122397
46.300000 -92.900000 4.138388
46.600000 -92.900000 4.154178
46.900000 -92.900000 4.165490
47.200000 -92.900000 4.171973
47.500000 -92.900000 4.176217
30.100000 -92.600000 3.957113
30.400000 -92.600000 3.968492
30.700000 -92.600000 3.978602
31.000000 -92.600000 3.983153
31.300000 -92.600000 3.984833
31.600000 -92.600000 3.987178
31.900000 -92.600000 3.991578
32.200000 -92.600000 3.996090
32.500000 -92.600000 3.997791
32.800000 -92.600000 3.996954
33.100000 -92.600000 3.994979
33.400000 -92.600000 3.996004
33.700000 -92.600000 4.001577
34.000000 -92.600000 4.012197
34.300000 -92.600000 4.024382
34.600000 -92.600000 4.035931
34.900000 -92.600000 4.046741
35.200000 -92.600000 4.057569
35.500000 -92.600000 4.071900
35.800000 -92.600000 4.086671
36.100000 -92.600000 4.099421
36.400000 -92.600000 4.106639
36.700000 -92.600000 4.108752
37.000000 -92.600000 4.109418
37.300000 -92.600000 4.113165
37.600000 -92.600000 4.121235
37.900000 -92.600000 4.134548
38.200000 -92.600000 4.148868
38.500000 -92.600000 4.158731
38.800000 -92.600000 4.159258
39.100000 -92.600000 4.152408
39.400000 -92.600000 4.144230
39.700000 -92.600000 4.142410
40.000000 -92.600000 4.145876
40.300000 -92.600000 4.150829
40.600000 -92.600000 4.155941
40.900000 -92.600000 4.157923
41.200000 -92.600000 4.156074
41.500000 -92.600000 4.154401
41.800000 -92.600000 4.157183
42.100000 -92.600000 4.165921
42.400000 -92.600000 4.176071
42.700000 -92.600000 4.184479
43.000000 -92.600000 4.184833
43.300000 -92.600000 4.176423
43.600000 -92.600000 4.161127
43.900000 -92.600000 4.144740
44.200000 -92.600000 4.130436
44.500000 -92.600000 4.120837
44.800000 -92.600000 4.115600
45.100000 -92.600000 4.111607
45.400000 -92.600000 4.109707
45.700000 -92.600000 4.110493
46.000000 -92.600000 4.120919
46.300000 -92.600000 4.136316
46.600000 -92.600000 4.152597
46.900000 -92.600000 4.164034
47.200000 -92.600000 4.170438
47.500000 -92.600000 4.173526
47.800000 -92.600000 4.174076
29.800000 -92.300000 3.944586
30.100000 -92.300000 3.951301
30.400000 -92.300000 3.962555
30.700000 -92.300000 3.972043
31.000000 -92.300000 3.979366
31.300000 -92.300000 3.983054
31.600000 -92.300000 3.986796
31.900000 -92.300000 3.991814
32.200000 -92.300000 3.996688
32.500000 -92.300000 3.998628
32.800000 -92.300000 3.996468
33.100000 -92.300000 3.994793
33.400000 -92.300000 3.996502
33.700000 -92.300000 4.003806
34.000000 -92.300000 4.014490
34.300000 -92.300000 4.028468
34.600000 -92.300000 4.039738
34.900000 -92.300000 4.048796
35.200000 -92.300000 4.057867
35.500000 -92.300000 4.068710
35.800000 -92.300000 4.081459
36.100000 -92.300000 4.092791
36.400000 -92.300000 4.099913
36.700000 -92.300000 4.103341
37.000000 -92.300000 4.106161
37.300000 -92.300000 4.110782
37.600000 -92.300000 4.118646
37.900000 -92.300000 4.129840
38.200000 -92.300000 4.142182
38.500000 -92.300000 4.152445
38.800000 -92.300000 4.155586
39.100000 -92.300000 4.151014
39.400000 -92.300000 4.145898
39.700000 -92.300000 4.144129
40.000000 -92.300000 4.147310
40.300000 -92.300000 4.151670
40.600000 -92.300000 4.156993
40.900000 -92.300000 4.160224
41.200000 -92.300000 4.161261
41.500000 -92.300000 4.162904
41.800000 -92.300000 4.166448
42.100000 -92.300000 4.175046
42.400000 -92.300000 4.184669
42.700000 -92.300000 4.192253
43.000000 -92.300000 4.191051
43.300000 -92.300000 4.182172
43.600000 -92.300000 4.167401
43.900000 -92.300000 4.152136
44.200000 -92.300000 4.138594
44.500000 -92.300000 4.129562
44.800000 -92.300000 4.124258
45.100000 -92.300000 4.118993
45.400000 -92.300000 4.115774
45.700000 -92.300000 4.114742
46.000000 -92.300000 4.123417
46.300000 -92.300000 4.137463
46.600000 -92.300000 4.153480
46.900000 -92.300000 4.165387
47.200000 -92.300000 4.172024
47.500000 -92.300000 4.175197
47.800000 -92.300000 4.175934
29.800000 -92.000000 3.943850
30.100000 -92.000000 3.946690
30.400000 -92.000000 3.957081
30.700000 -92.000000 3.966792
31.000000 -92.000000 3.976664
31.300000 -92.000000 3.982451
31.600000 -92.000000 3.986493
31.900000 -92.000000 3.992124
32.200000 -92.000000 3.997231
32.500000 -92.000000 3.999463
32.800000 -92.000000 3.998094
33.100000 -92.000000 3.995276
33.400000 -92.000000 3.997887
33.700000 -92.000000 4.004633
34.000000 -92.000000 4.016129
34.300000 -92.000000 4.028639
34.600000 -92.000000 4.040155
34.900000 -92.000000 4.047758
35.200000 -92.000000 4.056025
35.500000 -92.000000 4.062841
35.800000 -92.000000 4.073862
36.100000 -92.000000 4.084081
36.400000 -92.000000 4.092288
36.700000 -92.000000 4.098597
37.000000 -92.000000 4.104037
37.300000 -92.000000 4.110962
37.600000 -92.000000 4.117595
37.900000 -92.000000 4.126859
38.200000 -92.000000 4.136720
38.500000 -92.000000 4.144977
38.800000 -92.000000 4.148182
39.100000 -92.000000 4.146310
39.400000 -92.000000 4.143466
39.700000 -92.000000 4.143716
40.000000 -92.000000 4.147251
40.300000 -92.000000 4.153340
40.600000 -92.000000 4.158767
40.900000 -92.000000 4.163673
41.200000 -92.000000 4.166877
41.500000 -92.000000 4.169566
41.800000 -92.000000 4.172150
42.100000 -92.000000 4.177745
42.400000 -92.000000 4.185318
42.700000 -92.000000 4.191842
43.000000 -92.000000 4.191382
43.300000 -92.000000 4.184358
43.600000 -92.000000 4.171979
43.900000 -92.000000 4.158910
44.200000 -92.000000 4.146660
44.500000 -92.000000 4.138296
44.800000 -92.000000 4.132941
45.100000 -92.000000 4.128255
45.400000 -92.000000 4.124929
45.700000 -92.000000 4.123104
46.000000 -92.000000 4.128901
46.300000 -92.000000 4.138793
46.600000 -92.000000 4.152795
46.900000 -92.000000 4.167979
47.200000 -92.000000 4.176188
47.500000 -92.000000 4.178954
47.800000 -92.000000 4.178814
29.800000 -91.700000 3.943239
30.100000 -91.700000 3.946116
30.400000 -91.700000 3.953232
30.700000 -91.700000 3.964301
31.000000 -91.700000 3.975295
31.300000 -91.700000 3.982654
31.600000 -91.700000 3.987076
31.900000 -91.700000 3.992309
32.200000 -91.700000 3.998789
32.500000 -91.700000 4.002441
32.800000 -91.700000 4.002316
33.100000 -91.700000 3.999673
33.400000 -91.700000 4.001765
33.700000 -91.700000 4.007410
34.000000 -91.700000 4.018097
34.300000 -91.700000 4.029013
34.600000 -91.700000 4.039397
34.900000 -91.700000 4.046249
35.200000 -91.700000 4.051832
35.500000 -91.700000 4.056890
35.800000 -91.700000 4.063075
36.100000 -91.700000 4.073994
36.400000 -91.700000 4.083638
36.700000 -91.700000 4.094551
37.000000 -91.700000 4.104915
37.300000 -91.700000 4.112797
37.600000 -91.700000 4.119639
37.900000 -91.700000 4.125155
38.200000 -91.700000 4.131022
38.500000 -91.700000 4.136056
38.800000 -91.700000 4.138480
39.100000 -91.700000 4.138630
39.400000 -91.700000 4.138449
39.700000 -91.700000 4.141536
40.000000 -91.700000 4.147742
40.300000 -91.700000 4.156156
40.600000 -91.700000 4.162548
40.900000 -91.700000 4.168373
41.200000 -91.700000 4.173063
41.500000 -91.700000 4.174200
41.800000 -91.700000 4.174394
42.100000 -91.700000 4.175847
42.400000 -91.700000 4.180037
42.700000 -91.700000 4.184484
43.000000 -91.700000 4.185316
43.300000 -91.700000 4.181365
43.600000 -91.700000 4.172600
43.900000 -91.700000 4.161553
44.200000 -91.700000 4.150713
44.500000 -91.700000 4.142695
44.800000 -91.700000 4.137808
45.100000 -91.700000 4.133385
45.400000 -91.700000 4.131013
45.700000 -91.700000 4.130038
46.000000 -91.700000 4.134760
46.300000 -91.700000 4.141503
46.600000 -91.700000 4.155700
46.900000 -91.700000 4.173211
47.200000 -91.700000 4.182625
47.500000 -91.700000 4.184844
47.800000 -91.700000 4.185028
29.800000 -91.400000 3.943612
30.100000 -91.400000 3.946732
30.400000 -91.400000 3.952450
30.700000 -91.400000 3.963931
31.000000 -91.400000 3.975932
31.300000 -91.400000 3.984837
31.600000 -91.400000 3.990167
31.900000 -91.400000 3.994955
32.200000 -91.400000 4.002558
32.500000 -91.400000 4.009707
32.800000 -91.400000 4.011183
33.100000 -91.400000 4.009624
33.400000 -91.400000 4.010477
33.700000 -91.400000 4.014442
34.000000 -91.400000 4.023156
34.300000 -91.400000 4.031739
34.600000 -91.400000 4.041075
34.900000 -91.400000 4.048072
35.200000 -91.400000 4.050759
35.500000 -91.400000 4.052306
35.800000 -91.400000 4.054068
36.100000 -91.400000 4.063462
36.400000 -91.400000 4.076215
36.700000 -91.400000 4.092034
37.000000 -91.400000 4.107404
37.300000 -91.400000 4.117685
37.600000 -91.400000 4.121913
37.900000 -91.400000 4.122615
38.200000 -91.400000 4.123698
38.500000 -91.400000 4.125207
38.800000 -91.400000 4.126599
39.100000 -91.400000 4.129227
39.400000 -91.400000 4.131546
39.700000 -91.400000 4.138040
40.000000 -91.400000 4.147749
40.300000 -91.400000 4.158126
40.600000 -91.400000 4.166551
40.900000 -91.400000 4.172868
41.200000 -91.400000 4.176607
41.500000 -91.400000 4.174744
41.800000 -91.400000 4.171847
42.100000 -91.400000 4.168925
42.400000 -91.400000 4.170005
42.700000 -91.400000 4.172138
43.000000 -91.400000 4.173736
43.300000 -91.400000 4.172560
43.600000 -91.400000 4.166884
43.900000 -91.400000 4.158647
44.200000 -91.400000 4.149348
44.500000 -91.400000 4.143007
44.800000 -91.400000 4.138756
45.100000 -91.400000 4.135549
45.400000 -91.400000 4.134493
45.700000 -91.400000 4.135989
46.000000 -91.400000 4.141122
46.300000 -91.400000 4.146423
47.200000 -91.400000 4.189108
47.500000 -91.400000 4.191541
29.800000 -91.100000 3.945629
30.100000 -91.100000 3.948815
30.400000 -91.100000 3.954316
30.700000 -91.100000 3.966365
31.000000 -91.100000 3.979344
31.300000 -91.100000 3.990043
31.600000 -91.100000 3.995959
31.900000 -91.100000 4.000907
32.200000 -91.100000 4.009534
32.500000 -91.100000 4.019275
32.800000 -91.100000 4.024046
33.100000 -91.100000 4.025671
33.400000 -91.100000 4.025510
33.700000 -91.100000 4.028862
34.000000 -91.100000 4.033014
34.300000 -91.100000 4.039928
34.600000 -91.100000 4.047307
34.900000 -91.100000 4.053772
35.200000 -91.100000 4.054660
35.500000 -91.100000 4.051456
35.800000 -91.100000 4.049075
36.100000 -91.100000 4.054368
36.400000 -91.100000 4.069683
36.700000 -91.100000 4.091130
37.000000 -91.100000 4.111377
37.300000 -91.100000 4.123702
37.600000 -91.100000 4.124987
37.900000 -91.100000 4.120924
38.200000 -91.100000 4.116964
38.500000 -91.100000 4.114850
38.800000 -91.100000 4.115562
39.100000 -91.100000 4.118431
39.400000 -91.100000 4.124961
39.700000 -91.100000 4.133985
40.000000 -91.100000 4.146144
40.300000 -91.100000 4.158088
40.600000 -91.100000 4.167735
40.900000 -91.100000 4.173234
41.200000 -91.100000 4.176931
41.500000 -91.100000 4.171658
41.800000 -91.100000 4.166533
42.100000 -91.100000 4.160545
42.400000 -91.100000 4.158570
42.700000 -91.100000 4.158890
43.000000 -91.100000 4.159950
43.300000 -91.100000 4.160546
43.600000 -91.100000 4.156775
43.900000 -91.100000 4.151725
44.200000 -91.100000 4.144599
44.500000 -91.100000 4.139997
44.800000 -91.100000 4.136235
45.100000 -91.100000 4.134225
45.400000 -91.100000 4.135443
45.700000 -91.100000 4.140088
46.000000 -91.100000 4.146447
46.300000 -91.100000 4.151085
46.900000 -91.100000 4.183357
47.200000 -91.100000 4.192720
47.500000 -91.100000 4.195443
29.500000 -90.800000 3.948711
29.800000 -90.800000 3.949268
30.100000 -90.800000 3.950386
30.400000 -90.800000 3.957115
30.700000 -90.800000 3.969777
31.000000 -90.800000 3.984620
31.300000 -90.800000 3.996750
31.600000 -90.800000 4.003213
31.900000 -90.800000 4.008948
32.200000 -90.800000 4.018048
32.500000 -90.800000 4.031090
32.800000 -90.800000 4.040801
33.100000 -90.800000 4.045298
33.400000 -90.800000 4.047258
33.700000 -90.800000 4.048974
34.000000 -90.800000 4.050194
34.300000 -90.800000 4.054506
34.600000 -90.800000 4.059465
34.900000 -90.800000 4.065037
35.200000 -90.800000 4.064596
35.500000 -90.800000 4.057238
35.800000 -90.800000 4.050238
36.100000 -90.800000 4.050228
36.400000 -90.800000 4.065043
36.700000 -90.800000 4.089455
37.000000 -90.800000 4.114383
37.300000 -90.800000 4.129588
37.600000 -90.800000 4.130404
37.900000 -90.800000 4.120899
38.200000 -90.800000 4.112724
38.500000 -90.800000 4.107479
38.800000 -90.800000 4.106707
39.100000 -90.800000 4.110465
39.400000 -90.800000 4.118521
39.700000 -90.800000 4.129295
40.000000 -90.800000 4.142607
40.300000 -90.800000 4.154453
40.600000 -90.800000 4.163467
40.900000 -90.800000 4.168888
41.200000 -90.800000 4.171527
41.500000 -90.800000 4.166365
41.800000 -90.800000 4.160900
42.100000 -90.800000 4.153168
42.400000 -90.800000 4.149059
42.700000 -90.800000 4.147495
43.000000 -90.800000 4.147597
43.300000 -90.800000 4.148191
43.600000 -90.800000 4.145778
43.900000 -90.800000 4.143265
44.200000 -90.800000 4.139074
44.500000 -90.800000 4.136470
44.800000 -90.800000 4.134200
45.100000 -90.800000 4.133590
45.400000 -90.800000 4.135643
45.700000 -90.800000 4.141114
46.000000 -90.800000 4.147715
46.300000 -90.800000 4.151271
47.500000 -90.800000 4.193997
29.500000 -90.500000 3.953647
29.800000 -90.500000 3.952301
30.100000 -90.500000 3.953094
30.400000 -90.500000 3.959911
30.700000 -90.500000 3.973267
31.000000 -90.500000 3.990040
31.300000 -90.500000 4.003825
31.600000 -90.500000 4.011327
31.900000 -90.500000 4.017191
32.200000 -90.500000 4.027942
32.500000 -90.500000 4.043423
32.800000 -90.500000 4.057862
33.100000 -90.500000 4.066475
33.400000 -90.500000 4.071306
33.700000 -90.500000 4.073416
34.000000 -90.500000 4.072119
34.300000 -90.500000 4.073459
34.600000 -90.500000 4.076526
34.900000 -90.500000 4.079966
35.200000 -90.500000 4.077803
35.500000 -90.500000 4.067766
35.800000 -90.500000 4.055470
36.100000 -90.500000 4.051810
36.400000 -90.500000 4.062632
36.700000 -90.500000 4.086873
37.000000 -90.500000 4.114798
37.300000 -90.500000 4.132771
37.600000 -90.500000 4.134096
37.900000 -90.500000 4.122302
38.200000 -90.500000 4.109615
38.500000 -90.500000 4.103334
38.800000 -90.500000 4.101975
39.100000 -90.500000 4.105411
39.400000 -90.500000 4.113659
39.700000 -90.500000 4.124337
40.000000 -90.500000 4.136676
40.300000 -90.500000 4.146925
40.600000 -90.500000 4.154328
40.900000 -90.500000 4.159979
41.200000 -90.500000 4.162816
41.500000 -90.500000 4.158985
41.800000 -90.500000 4.154118
42.100000 -90.500000 4.147529
42.400000 -90.500000 4.142951
42.700000 -90.500000 4.140579
43.000000 -90.500000 4.138288
43.300000 -90.500000 4.137770
43.600000 -90.500000 4.136465
43.900000 -90.500000 4.136917
44.200000 -90.500000 4.136127
44.500000 -90.500000 4.136349
44.800000 -90.500000 4.135323
45.100000 -90.500000 4.134875
45.400000 -90.500000 4.135328
45.700000 -90.500000 4.140495
46.000000 -90.500000 4.146031
46.300000 -90.500000 4.149569
47.500000 -90.500000 4.190732
47.800000 -90.500000 4.190500
29.500000 -90.200000 3.957243
29.800000 -90.200000 3.956614
30.100000 -90.200000 3.957541
30.400000 -90.200000 3.962634
30.700000 -90.200000 3.975757
31.000000 -90.200000 3.992958
31.300000 -90.200000 4.008024
31.600000 -90.200000 4.017553
31.900000 -90.200000 4.024922
32.200000 -90.200000 4.036599
32.500000 -90.200000 4.054983
32.800000 -90.200000 4.072430
33.100000 -90.200000 4.084814
33.400000 -90.200000 4.093530
33.700000 -90.200000 4.096499
34.000000 -90.200000 4.095017
34.300000 -90.200000 4.093073
34.600000 -90.200000 4.094838
34.900000 -90.200000 4.096651
35.200000 -90.200000 4.091966
35.500000 -90.200000 4.080279
35.800000 -90.200000 4.064877
36.100000 -90.200000 4.057674
36.400000 -90.200000 4.063872
36.700000 -90.200000 4.083895
37.000000 -90.200000 4.110060
37.300000 -90.200000 4.129573
37.600000 -90.200000 4.131868
37.900000 -90.200000 4.121430
38.200000 -90.200000 4.107440
38.500000 -90.200000 4.101549
38.800000 -90.200000 4.100243
39.100000 -90.200000 4.103549
39.400000 -90.200000 4.111025
39.700000 -90.200000 4.120189
40.000000 -90.200000 4.129759
40.300000 -90.200000 4.136954
40.600000 -90.200000 4.142685
40.900000 -90.200000 4.147246
41.200000 -90.200000 4.151588
41.500000 -90.200000 4.150449
41.800000 -90.200000 4.147428
42.100000 -90.200000 4.142926
42.400000 -90.200000 4.139711
42.700000 -90.200000 4.137653
43.000000 -90.200000 4.133581
43.300000 -90.200000 4.131323
43.600000 -90.200000 4.130249
43.900000 -90.200000 4.134042
44.200000 -90.200000 4.136744
44.500000 -90.200000 4.139890
44.800000 -90.200000 4.139693
45.100000 -90.200000 4.139077
45.400000 -90.200000 4.136874
45.700000 -90.200000 4.139824
46.000000 -90.200000 4.142889
46.300000 -90.200000 4.145960
47.500000 -90.200000 4.183384
47.800000 -90.200000 4.183384
29.500000 -89.900000 3.962094
29.800000 -89.900000 3.960515
30.100000 -89.900000 3.960552
30.400000 -89.900000 3.965266
30.700000 -89.900000 3.977145
31.000000 -89.900000 3.993654
31.300000 -89.900000 4.008842
31.600000 -89.900000 4.020632
31.900000 -89.900000 4.030392
32.200000 -89.900000 4.045150
32.500000 -89.900000 4.063934
32.800000 -89.900000 4.082884
33.100000 -89.900000 4.097526
33.400000 -89.900000 4.108100
33.700000 -89.900000 4.113433
34.000000 -89.900000 4.114024
34.300000 -89.900000 4.110744
34.600000 -89.900000 4.111740
34.900000 -89.900000 4.111624
35.200000 -89.900000 4.106384
35.500000 -89.900000 4.093265
35.800000 -89.900000 4.077686
36.100000 -89.900000 4.068201
36.400000 -89.900000 4.069765
36.700000 -89.900000 4.081736
37.000000 -89.900000 4.100561
37.300000 -89.900000 4.118851
37.600000 -89.900000 4.121349
37.900000 -89.900000 4.113877
38.200000 -89.900000 4.104141
38.500000 -89.900000 4.099431
38.800000 -89.900000 4.100111
39.100000 -89.900000 4.103632
39.400000 -89.900000 4.110131
39.700000 -89.900000 4.117401
40.000000 -89.900000 4.123041
40.300000 -89.900000 4.127945
40.600000 -89.900000 4.130136
40.900000 -89.900000 4.133850
41.200000 -89.900000 4.139395
41.500000 -89.900000 4.141080
41.800000 -89.900000 4.140700
42.100000 -89.900000 4.139283
42.400000 -89.900000 4.138175
42.700000 -89.900000 4.136729
43.000000 -89.900000 4.132313
43.300000 -89.900000 4.129027
43.600000 -89.900000 4.128799
43.900000 -89.900000 4.134318
44.200000 -89.900000 4.140015
44.500000 -89.900000 4.145724
44.800000 -89.900000 4.147417
45.100000 -89.900000 4.146421
45.400000 -89.900000 4.140583
45.700000 -89.900000 4.138672
46.000000 -89.900000 4.137598
46.300000 -89.900000 4.136990
47.800000 -89.900000 4.167432
30.100000 -89.600000 3.963919
30.400000 -89.600000 3.969048
30.700000 -89.600000 3.978795
31.000000 -89.600000 3.992998
31.300000 -89.600000 4.008333
31.600000 -89.600000 4.022248
31.900000 -89.600000 4.034987
32.200000 -89.600000 4.051294
32.500000 -89.600000 4.070662
32.800000 -89.600000 4.088611
33.100000 -89.600000 4.102730
33.400000 -89.600000 4.114152
33.700000 -89.600000 4.121746
34.000000 -89.600000 4.123816
34.300000 -89.600000 4.122163
34.600000 -89.600000 4.122767
34.900000 -89.600000 4.122315
35.200000 -89.600000 4.116760
35.500000 -89.600000 4.105388
35.800000 -89.600000 4.091999
36.100000 -89.600000 4.082460
36.400000 -89.600000 4.079426
36.700000 -89.600000 4.084034
37.000000 -89.600000 4.092301
37.300000 -89.600000 4.103192
37.600000 -89.600000 4.106106
37.900000 -89.600000 4.101354
38.200000 -89.600000 4.098233
38.500000 -89.600000 4.097356
38.800000 -89.600000 4.100054
39.100000 -89.600000 4.104367
39.400000 -89.600000 4.109834
39.700000 -89.600000 4.114808
40.000000 -89.600000 4.118917
40.300000 -89.600000 4.119697
40.600000 -89.600000 4.118838
40.900000 -89.600000 4.120508
41.200000 -89.600000 4.124779
41.500000 -89.600000 4.131459
41.800000 -89.600000 4.133922
42.100000 -89.600000 4.135881
42.400000 -89.600000 4.136711
42.700000 -89.600000 4.136457
43.000000 -89.600000 4.132826
43.300000 -89.600000 4.129913
43.600000 -89.600000 4.130677
43.900000 -89.600000 4.136953
44.200000 -89.600000 4.143642
44.500000 -89.600000 4.151195
44.800000 -89.600000 4.154229
45.100000 -89.600000 4.152844
45.400000 -89.600000 4.143080
45.700000 -89.600000 4.135951
46.000000 -89.600000 4.130528
46.300000 -89.600000 4.127785
47.800000 -89.600000 4.159219
30.400000 -89.300000 3.973082
30.700000 -89.300000 3.980689
31.000000 -89.300000 3.993088
31.300000 -89.300000 4.008228
31.600000 -89.300000 4.024083
31.900000 -89.300000 4.039649
32.200000 -89.300000 4.056768
32.500000 -89.300000 4.074824
32.800000 -89.300000 4.091342
33.100000 -89.300000 4.103296
33.400000 -89.300000 4.114236
33.700000 -89.300000 4.123300
34.000000 -89.300000 4.126451
34.300000 -89.300000 4.128006
34.600000 -89.300000 4.128775
34.900000 -89.300000 4.128418
35.200000 -89.300000 4.123790
35.500000 -89.300000 4.113563
35.800000 -89.300000 4.104436
36.100000 -89.300000 4.095620
36.400000 -89.300000 4.090975
36.700000 -89.300000 4.089090
37.000000 -89.300000 4.090817
37.300000 -89.300000 4.092545
37.600000 -89.300000 4.094410
37.900000 -89.300000 4.092455
38.200000 -89.300000 4.093343
38.500000 -89.300000 4.094913
38.800000 -89.300000 4.098616
39.100000 -89.300000 4.103309
39.400000 -89.300000 4.108755
39.700000 -89.300000 4.113183
40.000000 -89.300000 4.116348
40.300000 -89.300000 4.115344
40.600000 -89.300000 4.111298
40.900000 -89.300000 4.109466
41.200000 -89.300000 4.111045
41.500000 -89.300000 4.121403
41.800000 -89.300000 4.128331
42.100000 -89.300000 4.133688
42.400000 -89.300000 4.136442
42.700000 -89.300000 4.136991
43.000000 -89.300000 4.134450
43.300000 -89.300000 4.131746
43.600000 -89.300000 4.132465
43.900000 -89.300000 4.138266
44.200000 -89.300000 4.145367
44.500000 -89.300000 4.153415
44.800000 -89.300000 4.156655
45.100000 -89.300000 4.154674
45.400000 -89.300000 4.143281
45.700000 -89.300000 4.133493
46.000000 -89.300000 4.125445
46.300000 -89.300000 4.122364
46.600000 -89.300000 4.118758
47.500000 -89.300000 4.149898
47.800000 -89.300000 4.149898
30.400000 -89.000000 3.977144
30.700000 -89.000000 3.984627
31.000000 -89.000000 3.995394
31.300000 -89.000000 4.011224
31.600000 -89.000000 4.028469
31.900000 -89.000000 4.045510
32.200000 -89.000000 4.062242
32.500000 -89.000000 4.079728
32.800000 -89.000000 4.093352
33.100000 -89.000000 4.103359
33.400000 -89.000000 4.112465
33.700000 -89.000000 4.121577
34.000000 -89.000000 4.127250
34.300000 -89.000000 4.130359
34.600000 -89.000000 4.132190
34.900000 -89.000000 4.129962
35.200000 -89.000000 4.126384
35.500000 -89.000000 4.118846
35.800000 -89.000000 4.111652
36.100000 -89.000000 4.104965
36.400000 -89.000000 4.101056
36.700000 -89.000000 4.097135
37.000000 -89.000000 4.095104
37.300000 -89.000000 4.091501
37.600000 -89.000000 4.090254
37.900000 -89.000000 4.089099
38.200000 -89.000000 4.089649
38.500000 -89.000000 4.092324
38.800000 -89.000000 4.095314
39.100000 -89.000000 4.100535
39.400000 -89.000000 4.106996
39.700000 -89.000000 4.111277
40.000000 -89.000000 4.114468
40.300000 -89.000000 4.113458
40.600000 -89.000000 4.110358
40.900000 -89.000000 4.103547
41.200000 -89.000000 4.103617
41.500000 -89.000000 4.115924
41.800000 -89.000000 4.127117
42.100000 -89.000000 4.134519
42.400000 -89.000000 4.138592
42.700000 -89.000000 4.139100
43.000000 -89.000000 4.136782
43.300000 -89.000000 4.133579
43.600000 -89.000000 4.133443
43.900000 -89.000000 4.138018
44.200000 -89.000000 4.144564
44.500000 -89.000000 4.152132
44.800000 -89.000000 4.154806
45.100000 -89.000000 4.152251
45.400000 -89.000000 4.141541
45.700000 -89.000000 4.131392
46.000000 -89.000000 4.123444
46.300000 -89.000000 4.119949
46.600000 -89.000000 4.117734
46.900000 -89.000000 4.116254
30.700000 -88.700000 3.990745
31.000000 -88.700000 4.001377
31.300000 -88.700000 4.017509
31.600000 -88.700000 4.035658
31.900000 -88.700000 4.052779
32.200000 -88.700000 4.069298
32.500000 -88.700000 4.084928
32.800000 -88.700000 4.096513
33.100000 -88.700000 4.104827
33.400000 -88.700000 4.113070
33.700000 -88.700000 4.121059
34.000000 -88.700000 4.129471
34.300000 -88.700000 4.133121
34.600000 -88.700000 4.133450
34.900000 -88.700000 4.130477
35.200000 -88.700000 4.125572
35.500000 -88.700000 4.120558
35.800000 -88.700000 4.114703
36.100000 -88.700000 4.109916
36.400000 -88.700000 4.106865
36.700000 -88.700000 4.104128
37.000000 -88.700000 4.101966
37.300000 -88.700000 4.098562
37.600000 -88.700000 4.092046
37.900000 -88.700000 4.089241
38.200000 -88.700000 4.088549
38.500000 -88.700000 4.089863
38.800000 -88.700000 4.092660
39.100000 -88.700000 4.098202
39.400000 -88.700000 4.104522
39.700000 -88.700000 4.110321
40.000000 -88.700000 4.113703
40.300000 -88.700000 4.115578
40.600000 -88.700000 4.113766
40.900000 -88.700000 4.107810
41.200000 -88.700000 4.106832
41.500000 -88.700000 4.117030
41.800000 -88.700000 4.129456
42.100000 -88.700000 4.137077
42.400000 -88.700000 4.140408
42.700000 -88.700000 4.140121
43.000000 -88.700000 4.137112
43.300000 -88.700000 4.134427
43.600000 -88.700000 4.134556
43.900000 -88.700000 4.138799
44.200000 -88.700000 4.144592
44.500000 -88.700000 4.151386
44.800000 -88.700000 4.153164
45.100000 -88.700000 4.150014
45.400000 -88.700000 4.140495
45.700000 -88.700000 4.131216
46.000000 -88.700000 4.124107
46.300000 -88.700000 4.120156
46.900000 -88.700000 4.116254
30.700000 -88.400000 4.001205
31.000000 -88.400000 4.008725
31.300000 -88.400000 4.025600
31.600000 -88.400000 4.043670
31.900000 -88.400000 4.061045
32.200000 -88.400000 4.076697
32.500000 -88.400000 4.090557
32.800000 -88.400000 4.100267
33.100000 -88.400000 4.108009
33.400000 -88.400000 4.115439
33.700000 -88.400000 4.124185
34.000000 -88.400000 4.132326
34.300000 -88.400000 4.136039
34.600000 -88.400000 4.135641
34.900000 -88.400000 4.131607
35.200000 -88.400000 4.125563
35.500000 -88.400000 4.123268
35.800000 -88.400000 4.118224
36.100000 -88.400000 4.112621
36.400000 -88.400000 4.108535
36.700000 -88.400000 4.108666
37.000000 -88.400000 4.108043
37.300000 -88.400000 4.104384
37.600000 -88.400000 4.097226
37.900000 -88.400000 4.091103
38.200000 -88.400000 4.088443
38.500000 -88.400000 4.088699
38.800000 -88.400000 4.092738
39.100000 -88.400000 4.098107
39.400000 -88.400000 4.104818
39.700000 -88.400000 4.110663
40.000000 -88.400000 4.115129
40.300000 -88.400000 4.119338
40.600000 -88.400000 4.121980
40.900000 -88.400000 4.120113
41.200000 -88.400000 4.118535
41.500000 -88.400000 4.125021
41.800000 -88.400000 4.131372
42.100000 -88.400000 4.137446
42.400000 -88.400000 4.139390
42.700000 -88.400000 4.140725
43.000000 -88.400000 4.136829
43.300000 -88.400000 4.134318
43.600000 -88.400000 4.134209
43.900000 -88.400000 4.139917
44.200000 -88.400000 4.147085
44.500000 -88.400000 4.153920
44.800000 -88.400000 4.154266
45.100000 -88.400000 4.148977
45.400000 -88.400000 4.139328
45.700000 -88.400000 4.131612
46.000000 -88.400000 4.125696
46.300000 -88.400000 4.122258
46.600000 -88.400000 4.119223
30.700000 -88.100000 4.009881
31.000000 -88.100000 4.018460
31.300000 -88.100000 4.033820
31.600000 -88.100000 4.051756
31.900000 -88.100000 4.068598
32.200000 -88.100000 4.083900
32.500000 -88.100000 4.094924
32.800000 -88.100000 4.103831
33.100000 -88.100000 4.109955
33.400000 -88.100000 4.118370
33.700000 -88.100000 4.127337
34.000000 -88.100000 4.133970
34.300000 -88.100000 4.138635
34.600000 -88.100000 4.136503
34.900000 -88.100000 4.133456
35.200000 -88.100000 4.130952
35.500000 -88.100000 4.127599
35.800000 -88.100000 4.122568
36.100000 -88.100000 4.114954
36.400000 -88.100000 4.109187
36.700000 -88.100000 4.108600
37.000000 -88.100000 4.109134
37.300000 -88.100000 4.106062
37.600000 -88.100000 4.099501
37.900000 -88.100000 4.093509
38.200000 -88.100000 4.091055
38.500000 -88.100000 4.091354
38.800000 -88.100000 4.096924
39.100000 -88.100000 4.102107
39.400000 -88.100000 4.108339
39.700000 -88.100000 4.114037
40.000000 -88.100000 4.117340
40.300000 -88.100000 4.124220
40.600000 -88.100000 4.129751
40.900000 -88.100000 4.133047
41.200000 -88.100000 4.132468
41.500000 -88.100000 4.134019
41.800000 -88.100000 4.133004
42.100000 -88.100000 4.137037
42.400000 -88.100000 4.137735
43.300000 -88.100000 4.133717
43.900000 -88.100000 4.146165
44.200000 -88.100000 4.154563
44.500000 -88.100000 4.160873
44.800000 -88.100000 4.158664
45.100000 -88.100000 4.150613
45.400000 -88.100000 4.139785
45.700000 -88.100000 4.132308
46.000000 -88.100000 4.127140
46.300000 -88.100000 4.124331
30.700000 -87.800000 4.020557
31.000000 -87.800000 4.029296
31.300000 -87.800000 4.043595
31.600000 -87.800000 4.058541
31.900000 -87.800000 4.074800
32.200000 -87.800000 4.088520
32.500000 -87.800000 4.097608
32.800000 -87.800000 4.103576
33.100000 -87.800000 4.110044
33.400000 -87.800000 4.118179
33.700000 -87.800000 4.126772
34.000000 -87.800000 4.133832
34.300000 -87.800000 4.137009
34.600000 -87.800000 4.136794
34.900000 -87.800000 4.135323
35.200000 -87.800000 4.134123
35.500000 -87.800000 4.132697
35.800000 -87.800000 4.125119
36.100000 -87.800000 4.116223
36.400000 -87.800000 4.110921
36.700000 -87.800000 4.108419
37.000000 -87.800000 4.109198
37.300000 -87.800000 4.104700
37.600000 -87.800000 4.102133
37.900000 -87.800000 4.095691
38.200000 -87.800000 4.095898
38.500000 -87.800000 4.098005
38.800000 -87.800000 4.103347
39.100000 -87.800000 4.108930
39.400000 -87.800000 4.115034
39.700000 -87.800000 4.118524
40.000000 -87.800000 4.121075
40.300000 -87.800000 4.125913
40.600000 -87.800000 4.133566
40.900000 -87.800000 4.137837
41.200000 -87.800000 4.138361
41.500000 -87.800000 4.140294
41.800000 -87.800000 4.135416
42.100000 -87.800000 4.138158
44.200000 -87.800000 4.164122
44.500000 -87.800000 4.168965
44.800000 -87.800000 4.164200
45.100000 -87.800000 4.153737
45.400000 -87.800000 4.140758
45.700000 -87.800000 4.130231
46.000000 -87.800000 4.125303
46.300000 -87.800000 4.123339
30.700000 -87.500000 4.032454
31.000000 -87.500000 4.042043
31.300000 -87.500000 4.052775
31.600000 -87.500000 4.065474
31.900000 -87.500000 4.078133
32.200000 -87.500000 4.090568
32.500000 -87.500000 4.097338
32.800000 -87.500000 4.100703
33.100000 -87.500000 4.106004
33.400000 -87.500000 4.113132
33.700000 -87.500000 4.122929
34.000000 -87.500000 4.129828
34.300000 -87.500000 4.134459
34.600000 -87.500000 4.134633
34.900000 -87.500000 4.133999
35.200000 -87.500000 4.132668
35.500000 -87.500000 4.130562
35.800000 -87.500000 4.124174
36.100000 -87.500000 4.116870
36.400000 -87.500000 4.111987
36.700000 -87.500000 4.109943
37.000000 -87.500000 4.108216
37.300000 -87.500000 4.106793
37.600000 -87.500000 4.102344
37.900000 -87.500000 4.099919
38.200000 -87.500000 4.100287
38.500000 -87.500000 4.104166
38.800000 -87.500000 4.109732
39.100000 -87.500000 4.116078
39.400000 -87.500000 4.121602
39.700000 -87.500000 4.124340
40.000000 -87.500000 4.125773
40.300000 -87.500000 4.127678
40.600000 -87.500000 4.132323
40.900000 -87.500000 4.134349
41.200000 -87.500000 4.134455
41.500000 -87.500000 4.135298
42.100000 -87.500000 4.131534
43.900000 -87.500000 4.163623
44.200000 -87.500000 4.168097
44.500000 -87.500000 4.174204
44.800000 -87.500000 4.170028
45.100000 -87.500000 4.155320
45.400000 -87.500000 4.138232
45.700000 -87.500000 4.126422
46.000000 -87.500000 4.121753
46.300000 -87.500000 4.121478
30.700000 -87.200000 4.044830
31.000000 -87.200000 4.051189
31.300000 -87.200000 4.061481
31.600000 -87.200000 4.069922
31.900000 -87.200000 4.080343
32.200000 -87.200000 4.090632
32.500000 -87.200000 4.096227
32.800000 -87.200000 4.096430
33.100000 -87.200000 4.099378
33.400000 -87.200000 4.105463
33.700000 -87.200000 4.116001
34.000000 -87.200000 4.125849
34.300000 -87.200000 4.131022
34.600000 -87.200000 4.131073
34.900000 -87.200000 4.127803
35.200000 -87.200000 4.123747
35.500000 -87.200000 4.121164
35.800000 -87.200000 4.117274
36.100000 -87.200000 4.113068
36.400000 -87.200000 4.112532
36.700000 -87.200000 4.110846
37.000000 -87.200000 4.108116
37.300000 -87.200000 4.105129
37.600000 -87.200000 4.101628
37.900000 -87.200000 4.100593
38.200000 -87.200000 4.102432
38.500000 -87.200000 4.106773
38.800000 -87.200000 4.112810
39.100000 -87.200000 4.119028
39.400000 -87.200000 4.126543
39.700000 -87.200000 4.129198
40.000000 -87.200000 4.131667
40.300000 -87.200000 4.130504
40.600000 -87.200000 4.130664
40.900000 -87.200000 4.128131
41.200000 -87.200000 4.126049
41.500000 -87.200000 4.129593
44.200000 -87.200000 4.164112
44.500000 -87.200000 4.175605
45.100000 -87.200000 4.151275
45.700000 -87.200000 4.117523
46.000000 -87.200000 4.114486
46.300000 -87.200000 4.114749
30.700000 -86.900000 4.049581
31.000000 -86.900000 4.060173
31.300000 -86.900000 4.068090
31.600000 -86.900000 4.074241
31.900000 -86.900000 4.082454
32.200000 -86.900000 4.091491
32.500000 -86.900000 4.096110
32.800000 -86.900000 4.094204
33.100000 -86.900000 4.093193
33.400000 -86.900000 4.097671
33.700000 -86.900000 4.108457
34.000000 -86.900000 4.119806
34.300000 -86.900000 4.128599
34.600000 -86.900000 4.126718
34.900000 -86.900000 4.118648
35.200000 -86.900000 4.112662
35.500000 -86.900000 4.108421
35.800000 -86.900000 4.107518
36.100000 -86.900000 4.109806
36.400000 -86.900000 4.110359
36.700000 -86.900000 4.113747
37.000000 -86.900000 4.109004
37.300000 -86.900000 4.103940
37.600000 -86.900000 4.100180
37.900000 -86.900000 4.100030
38.200000 -86.900000 4.102652
38.500000 -86.900000 4.105685
38.800000 -86.900000 4.111035
39.100000 -86.900000 4.117968
39.400000 -86.900000 4.127576
39.700000 -86.900000 4.135497
40.000000 -86.900000 4.139318
40.300000 -86.900000 4.139185
40.600000 -86.900000 4.133474
40.900000 -86.900000 4.126288
41.200000 -86.900000 4.122353
41.500000 -86.900000 4.130306
41.800000 -86.900000 4.138737
43.900000 -86.900000 4.138375
44.200000 -86.900000 4.146224
44.500000 -86.900000 4.157803
45.400000 -86.900000 4.120504
45.700000 -86.900000 4.108762
46.000000 -86.900000 4.106126
46.300000 -86.900000 4.106570
30.400000 -86.600000 4.042997
30.700000 -86.600000 4.051916
31.000000 -86.600000 4.064435
31.300000 -86.600000 4.073441
31.600000 -86.600000 4.078021
31.900000 -86.600000 4.085601
32.200000 -86.600000 4.094751
32.500000 -86.600000 4.096995
32.800000 -86.600000 4.093719
33.100000 -86.600000 4.089363
33.400000 -86.600000 4.090698
33.700000 -86.600000 4.099269
34.000000 -86.600000 4.114161
34.300000 -86.600000 4.124004
34.600000 -86.600000 4.123990
34.900000 -86.600000 4.113390
35.200000 -86.600000 4.102491
35.500000 -86.600000 4.100386
35.800000 -86.600000 4.100618
36.100000 -86.600000 4.103257
36.400000 -86.600000 4.108089
36.700000 -86.600000 4.108090
37.000000 -86.600000 4.106933
37.300000 -86.600000 4.099887
37.600000 -86.600000 4.099702
37.900000 -86.600000 4.098512
38.200000 -86.600000 4.102394
38.500000 -86.600000 4.103728
38.800000 -86.600000 4.106624
39.100000 -86.600000 4.113634
39.400000 -86.600000 4.125624
39.700000 -86.600000 4.140272
40.000000 -86.600000 4.149841
40.300000 -86.600000 4.152191
40.600000 -86.600000 4.144577
40.900000 -86.600000 4.132067
41.200000 -86.600000 4.128110
41.500000 -86.600000 4.138661
41.800000 -86.600000 4.155026
43.300000 -86.600000 4.143978
43.900000 -86.600000 4.120814
44.500000 -86.600000 4.133439
45.400000 -86.600000 4.108564
45.700000 -86.600000 4.100751
46.000000 -86.600000 4.099523
46.300000 -86.600000 4.100404
30.400000 -86.300000 4.042042
30.700000 -86.300000 4.050693
31.000000 -86.300000 4.066151
31.300000 -86.300000 4.077417
31.600000 -86.300000 4.083978
31.900000 -86.300000 4.090661
32.200000 -86.300000 4.097531
32.500000 -86.300000 4.098745
32.800000 -86.300000 4.095051
33.100000 -86.300000 4.086488
33.400000 -86.300000 4.083949
33.700000 -86.300000 4.089569
34.000000 -86.300000 4.102882
34.300000 -86.300000 4.116254
34.600000 -86.300000 4.117630
34.900000 -86.300000 4.109078
35.200000 -86.300000 4.099242
35.500000 -86.300000 4.097305
35.800000 -86.300000 4.098298
36.100000 -86.300000 4.098141
36.400000 -86.300000 4.100556
36.700000 -86.300000 4.100426
37.000000 -86.300000 4.099241
37.300000 -86.300000 4.096864
37.600000 -86.300000 4.099110
37.900000 -86.300000 4.101020
38.200000 -86.300000 4.105343
38.500000 -86.300000 4.106151
38.800000 -86.300000 4.107518
39.100000 -86.300000 4.113937
39.400000 -86.300000 4.127215
39.700000 -86.300000 4.147722
40.000000 -86.300000 4.163035
40.300000 -86.300000 4.167767
40.600000 -86.300000 4.158972
40.900000 -86.300000 4.144313
41.200000 -86.300000 4.140256
41.500000 -86.300000 4.150580
41.800000 -86.300000 4.166947
42.100000 -86.300000 4.180582
42.400000 -86.300000 4.188879
43.000000 -86.300000 4.156846
43.300000 -86.300000 4.144117
43.600000 -86.300000 4.124938
43.900000 -86.300000 4.116735
44.200000 -86.300000 4.116098
44.500000 -86.300000 4.118343
44.800000 -86.300000 4.116769
45.100000 -86.300000 4.108283
45.400000 -86.300000 4.101498
45.700000 -86.300000 4.099318
46.000000 -86.300000 4.096500
46.300000 -86.300000 4.096903
30.400000 -86.000000 4.038101
30.700000 -86.000000 4.051510
31.000000 -86.000000 4.067820
31.300000 -86.000000 4.081781
31.600000 -86.000000 4.090737
31.900000 -86.000000 4.094658
32.200000 -86.000000 4.098335
32.500000 -86.000000 4.097023
32.800000 -86.000000 4.092871
33.100000 -86.000000 4.083209
33.400000 -86.000000 4.077993
33.700000 -86.000000 4.077133
34.000000 -86.000000 4.089624
34.300000 -86.000000 4.100661
34.600000 -86.000000 4.105937
34.900000 -86.000000 4.101658
35.200000 -86.000000 4.097405
35.500000 -86.000000 4.097080
35.800000 -86.000000 4.098818
36.100000 -86.000000 4.094676
36.400000 -86.000000 4.094583
36.700000 -86.000000 4.091602
37.000000 -86.000000 4.091901
37.300000 -86.000000 4.093521
37.600000 -86.000000 4.098911
37.900000 -86.000000 4.106144
38.200000 -86.000000 4.111188
38.500000 -86.000000 4.113448
38.800000 -86.000000 4.115596
39.100000 -86.000000 4.121832
39.400000 -86.000000 4.137997
39.700000 -86.000000 4.159635
40.000000 -86.000000 4.179892
40.300000 -86.000000 4.183857
40.600000 -86.000000 4.173156
40.900000 -86.000000 4.157037
41.200000 -86.000000 4.152526
41.500000 -86.000000 4.164195
41.800000 -86.000000 4.178868
42.100000 -86.000000 4.187001
42.400000 -86.000000 4.184917
42.700000 -86.000000 4.170264
43.000000 -86.000000 4.153955
43.300000 -86.000000 4.145314
43.600000 -86.000000 4.130587
43.900000 -86.000000 4.120962
44.200000 -86.000000 4.113803
44.500000 -86.000000 4.113559
44.800000 -86.000000 4.111900
45.100000 -86.000000 4.106349
45.400000 -86.000000 4.099640
45.700000 -86.000000 4.097593
46.000000 -86.000000 4.096034
46.300000 -86.000000 4.096555
30.100000 -85.700000 4.026113
30.400000 -85.700000 4.034922
30.700000 -85.700000 4.050155
31.000000 -85.700000 4.069594
31.300000 -85.700000 4.085974
31.600000 -85.700000 4.094008
31.900000 -85.700000 4.096888
32.200000 -85.700000 4.095802
32.500000 -85.700000 4.092757
32.800000 -85.700000 4.086788
