31.300000 -84.500000 3.712472
31.600000 -84.500000 3.731116
31.900000 -84.500000 3.760359
32.200000 -84.500000 3.766104
32.500000 -84.500000 3.766589
32.800000 -84.500000 3.742259
33.100000 -84.500000 3.723174
33.400000 -84.500000 3.707834
33.700000 -84.500000 3.687510
34.000000 -84.500000 3.666291
34.300000 -84.500000 3.649620
34.600000 -84.500000 3.639350
34.900000 -84.500000 3.633832
35.200000 -84.500000 3.629494
35.500000 -84.500000 3.627475
35.800000 -84.500000 3.626207
36.100000 -84.500000 3.629488
36.400000 -84.500000 3.636721
36.700000 -84.500000 3.640632
37.000000 -84.500000 3.644621
37.300000 -84.500000 3.648557
37.600000 -84.500000 3.640458
37.900000 -84.500000 3.643678
38.200000 -84.500000 3.650591
38.500000 -84.500000 3.661580
38.800000 -84.500000 3.667120
39.100000 -84.500000 3.687048
39.400000 -84.500000 3.705740
39.700000 -84.500000 3.724482
40.000000 -84.500000 3.732592
40.300000 -84.500000 3.732868
40.600000 -84.500000 3.725536
40.900000 -84.500000 3.720997
41.200000 -84.500000 3.728229
41.500000 -84.500000 3.738868
41.800000 -84.500000 3.730580
42.100000 -84.500000 3.723498
42.400000 -84.500000 3.719726
42.700000 -84.500000 3.713615
43.000000 -84.500000 3.720524
43.300000 -84.500000 3.734975
43.600000 -84.500000 3.734046
43.900000 -84.500000 3.739490
44.200000 -84.500000 3.746692
44.500000 -84.500000 3.763558
44.800000 -84.500000 3.775835
45.100000 -84.500000 3.783174
45.700000 -84.500000 3.782652
46.000000 -84.500000 3.764308
46.300000 -84.500000 3.762041
30.100000 -84.200000 3.699128
30.400000 -84.200000 3.698450
30.700000 -84.200000 3.689961
31.000000 -84.200000 3.703961
31.300000 -84.200000 3.726920
31.600000 -84.200000 3.738946
31.900000 -84.200000 3.760488
32.200000 -84.200000 3.769442
32.500000 -84.200000 3.770147
32.800000 -84.200000 3.750591
33.100000 -84.200000 3.740985
33.400000 -84.200000 3.730797
33.700000 -84.200000 3.717899
34.000000 -84.200000 3.692039
34.300000 -84.200000 3.666339
34.600000 -84.200000 3.649553
34.900000 -84.200000 3.636051
35.200000 -84.200000 3.630831
35.500000 -84.200000 3.624750
35.800000 -84.200000 3.623667
36.100000 -84.200000 3.624546
36.400000 -84.200000 3.631573
36.700000 -84.200000 3.643116
37.000000 -84.200000 3.648125
37.300000 -84.200000 3.648077
37.600000 -84.200000 3.641269
37.900000 -84.200000 3.644150
38.200000 -84.200000 3.650058
38.500000 -84.200000 3.664389
38.800000 -84.200000 3.662999
39.100000 -84.200000 3.674518
39.400000 -84.200000 3.688653
39.700000 -84.200000 3.704688
40.000000 -84.200000 3.701963
40.300000 -84.200000 3.707083
40.600000 -84.200000 3.699190
40.900000 -84.200000 3.696984
41.200000 -84.200000 3.698348
41.500000 -84.200000 3.709118
41.800000 -84.200000 3.701742
42.100000 -84.200000 3.700912
42.400000 -84.200000 3.712159
42.700000 -84.200000 3.705846
43.000000 -84.200000 3.721053
43.300000 -84.200000 3.730891
43.600000 -84.200000 3.735326
43.900000 -84.200000 3.737442
44.200000 -84.200000 3.749826
44.500000 -84.200000 3.766150
44.800000 -84.200000 3.771420
45.100000 -84.200000 3.782244
46.300000 -84.200000 3.777497
46.600000 -84.200000 3.789228
29.800000 -83.900000 3.720383
30.100000 -83.900000 3.709556
30.400000 -83.900000 3.703768
30.700000 -83.900000 3.708813
31.000000 -83.900000 3.715370
31.300000 -83.900000 3.733306
31.600000 -83.900000 3.740283
31.900000 -83.900000 3.759404
32.200000 -83.900000 3.771596
32.500000 -83.900000 3.774202
32.800000 -83.900000 3.756677
33.100000 -83.900000 3.755772
33.400000 -83.900000 3.758112
33.700000 -83.900000 3.744990
34.000000 -83.900000 3.714842
34.300000 -83.900000 3.688659
34.600000 -83.900000 3.658564
34.900000 -83.900000 3.633673
35.200000 -83.900000 3.628989
35.500000 -83.900000 3.624098
35.800000 -83.900000 3.626776
36.100000 -83.900000 3.628277
36.400000 -83.900000 3.635078
36.700000 -83.900000 3.645408
37.000000 -83.900000 3.651596
37.300000 -83.900000 3.650464
37.600000 -83.900000 3.645928
37.900000 -83.900000 3.647562
38.200000 -83.900000 3.653085
38.500000 -83.900000 3.661059
38.800000 -83.900000 3.659700
39.100000 -83.900000 3.672599
39.400000 -83.900000 3.679748
39.700000 -83.900000 3.691170
40.000000 -83.900000 3.685544
40.300000 -83.900000 3.685614
40.600000 -83.900000 3.675291
40.900000 -83.900000 3.675453
41.200000 -83.900000 3.675250
41.500000 -83.900000 3.681212
41.800000 -83.900000 3.682782
42.100000 -83.900000 3.687358
42.400000 -83.900000 3.702524
42.700000 -83.900000 3.704657
43.000000 -83.900000 3.729096
43.300000 -83.900000 3.734357
43.600000 -83.900000 3.749869
43.900000 -83.900000 3.747896
44.200000 -83.900000 3.756597
44.500000 -83.900000 3.763541
44.800000 -83.900000 3.774589
45.100000 -83.900000 3.777399
46.600000 -83.900000 3.791231
29.500000 -83.600000 3.743084
29.800000 -83.600000 3.726183
30.100000 -83.600000 3.714277
30.400000 -83.600000 3.718705
30.700000 -83.600000 3.724152
31.000000 -83.600000 3.725409
31.300000 -83.600000 3.736379
31.600000 -83.600000 3.746851
31.900000 -83.600000 3.758851
32.200000 -83.600000 3.767594
32.500000 -83.600000 3.770054
32.800000 -83.600000 3.765141
33.100000 -83.600000 3.771296
33.400000 -83.600000 3.778403
33.700000 -83.600000 3.767850
34.000000 -83.600000 3.739575
34.300000 -83.600000 3.708776
34.600000 -83.600000 3.672162
34.900000 -83.600000 3.639746
35.200000 -83.600000 3.630538
35.500000 -83.600000 3.629354
35.800000 -83.600000 3.629735
36.100000 -83.600000 3.633314
36.400000 -83.600000 3.638362
36.700000 -83.600000 3.647120
37.000000 -83.600000 3.651910
37.300000 -83.600000 3.653276
37.600000 -83.600000 3.647010
37.900000 -83.600000 3.651586
38.200000 -83.600000 3.655203
38.500000 -83.600000 3.661801
38.800000 -83.600000 3.664170
39.100000 -83.600000 3.674101
39.400000 -83.600000 3.680750
39.700000 -83.600000 3.687416
40.000000 -83.600000 3.673584
40.300000 -83.600000 3.672417
40.600000 -83.600000 3.664885
40.900000 -83.600000 3.665407
41.200000 -83.600000 3.659260
41.500000 -83.600000 3.669294
41.800000 -83.600000 3.674458
42.100000 -83.600000 3.681467
42.400000 -83.600000 3.707659
42.700000 -83.600000 3.713817
43.000000 -83.600000 3.736151
43.300000 -83.600000 3.738383
43.600000 -83.600000 3.749739
43.900000 -83.600000 3.757173
44.200000 -83.600000 3.766960
44.500000 -83.600000 3.771920
44.800000 -83.600000 3.766571
45.100000 -83.600000 3.785338
45.400000 -83.600000 3.774211
46.300000 -83.600000 3.796419
29.200000 -83.300000 3.742846
29.500000 -83.300000 3.737462
29.800000 -83.300000 3.720376
30.100000 -83.300000 3.724321
30.400000 -83.300000 3.724681
30.700000 -83.300000 3.734821
31.000000 -83.300000 3.738362
31.300000 -83.300000 3.747322
31.600000 -83.300000 3.755138
31.900000 -83.300000 3.757215
32.200000 -83.300000 3.760573
32.500000 -83.300000 3.767878
32.800000 -83.300000 3.760526
33.100000 -83.300000 3.779085
33.400000 -83.300000 3.784260
33.700000 -83.300000 3.778913
34.000000 -83.300000 3.755424
34.300000 -83.300000 3.724129
34.600000 -83.300000 3.680176
34.900000 -83.300000 3.654932
35.200000 -83.300000 3.637416
35.500000 -83.300000 3.637917
35.800000 -83.300000 3.634151
36.100000 -83.300000 3.641908
36.400000 -83.300000 3.637597
36.700000 -83.300000 3.640277
37.000000 -83.300000 3.649732
37.300000 -83.300000 3.650858
37.600000 -83.300000 3.647355
37.900000 -83.300000 3.651642
38.200000 -83.300000 3.651509
38.500000 -83.300000 3.672305
38.800000 -83.300000 3.671128
39.100000 -83.300000 3.685750
39.400000 -83.300000 3.697210
39.700000 -83.300000 3.696123
40.000000 -83.300000 3.684437
40.300000 -83.300000 3.670612
40.600000 -83.300000 3.663544
40.900000 -83.300000 3.663414
41.200000 -83.300000 3.665558
41.500000 -83.300000 3.678437
41.800000 -83.300000 3.672359
42.100000 -83.300000 3.684465
42.400000 -83.300000 3.698478
42.700000 -83.300000 3.723436
43.000000 -83.300000 3.735592
43.300000 -83.300000 3.750744
43.600000 -83.300000 3.755008
43.900000 -83.300000 3.762893
44.200000 -83.300000 3.779567
45.400000 -83.300000 3.791571
45.700000 -83.300000 3.777567
46.000000 -83.300000 3.783257
46.300000 -83.300000 3.792192
46.600000 -83.300000 3.793750
46.900000 -83.300000 3.797609
29.200000 -83.000000 3.735708
29.500000 -83.000000 3.730807
29.800000 -83.000000 3.721698
30.100000 -83.000000 3.725623
30.400000 -83.000000 3.725059
30.700000 -83.000000 3.748374
31.000000 -83.000000 3.752729
31.300000 -83.000000 3.763272
31.600000 -83.000000 3.761607
31.900000 -83.000000 3.753057
32.200000 -83.000000 3.756380
32.500000 -83.000000 3.761161
32.800000 -83.000000 3.754207
33.100000 -83.000000 3.787626
33.400000 -83.000000 3.789906
33.700000 -83.000000 3.786006
34.000000 -83.000000 3.768687
34.300000 -83.000000 3.721658
34.600000 -83.000000 3.683657
34.900000 -83.000000 3.658074
35.200000 -83.000000 3.644646
35.500000 -83.000000 3.642600
35.800000 -83.000000 3.633659
36.100000 -83.000000 3.643966
36.400000 -83.000000 3.636282
36.700000 -83.000000 3.635461
37.000000 -83.000000 3.641243
37.300000 -83.000000 3.644417
37.600000 -83.000000 3.640895
37.900000 -83.000000 3.650877
38.200000 -83.000000 3.659674
38.500000 -83.000000 3.672720
38.800000 -83.000000 3.675886
39.100000 -83.000000 3.695226
39.400000 -83.000000 3.704312
39.700000 -83.000000 3.708713
40.000000 -83.000000 3.704848
40.300000 -83.000000 3.689892
40.600000 -83.000000 3.668821
40.900000 -83.000000 3.672250
41.200000 -83.000000 3.678292
41.500000 -83.000000 3.683569
41.800000 -83.000000 3.684132
42.100000 -83.000000 3.687930
42.400000 -83.000000 3.699882
42.700000 -83.000000 3.717075
43.000000 -83.000000 3.736987
43.600000 -83.000000 3.763250
43.900000 -83.000000 3.772347
45.400000 -83.000000 3.801503
45.700000 -83.000000 3.792642
46.000000 -83.000000 3.803767
46.300000 -83.000000 3.783021
46.600000 -83.000000 3.804962
46.900000 -83.000000 3.797609
29.200000 -82.700000 3.742361
29.500000 -82.700000 3.714174
29.800000 -82.700000 3.715573
30.100000 -82.700000 3.712824
30.400000 -82.700000 3.720646
30.700000 -82.700000 3.749253
31.000000 -82.700000 3.769767
31.300000 -82.700000 3.774933
31.600000 -82.700000 3.775286
31.900000 -82.700000 3.762768
32.200000 -82.700000 3.747848
32.500000 -82.700000 3.754154
32.800000 -82.700000 3.756904
33.100000 -82.700000 3.779936
33.400000 -82.700000 3.790497
33.700000 -82.700000 3.787381
34.000000 -82.700000 3.772481
34.300000 -82.700000 3.746947
34.600000 -82.700000 3.715677
34.900000 -82.700000 3.680240
35.200000 -82.700000 3.652838
35.500000 -82.700000 3.643451
35.800000 -82.700000 3.635728
36.100000 -82.700000 3.638190
36.400000 -82.700000 3.637772
36.700000 -82.700000 3.640794
37.000000 -82.700000 3.643358
37.300000 -82.700000 3.645073
37.600000 -82.700000 3.645112
37.900000 -82.700000 3.652174
38.200000 -82.700000 3.657836
38.500000 -82.700000 3.668324
38.800000 -82.700000 3.679893
39.100000 -82.700000 3.699017
39.400000 -82.700000 3.708399
39.700000 -82.700000 3.717697
40.000000 -82.700000 3.711019
40.300000 -82.700000 3.702606
40.600000 -82.700000 3.681225
40.900000 -82.700000 3.688833
41.200000 -82.700000 3.690825
41.500000 -82.700000 3.698260
41.800000 -82.700000 3.697665
42.100000 -82.700000 3.696307
42.400000 -82.700000 3.700300
42.700000 -82.700000 3.715719
45.700000 -82.700000 3.818803
46.000000 -82.700000 3.801601
46.300000 -82.700000 3.802810
28.000000 -82.400000 3.777397
28.300000 -82.400000 3.792154
28.900000 -82.400000 3.747086
29.200000 -82.400000 3.728673
29.500000 -82.400000 3.720801
29.800000 -82.400000 3.713094
30.100000 -82.400000 3.709822
30.400000 -82.400000 3.725668
30.700000 -82.400000 3.761104
31.000000 -82.400000 3.778576
31.300000 -82.400000 3.789813
31.600000 -82.400000 3.785490
31.900000 -82.400000 3.772092
32.200000 -82.400000 3.754830
32.500000 -82.400000 3.754956
32.800000 -82.400000 3.757867
33.100000 -82.400000 3.782218
33.400000 -82.400000 3.791730
33.700000 -82.400000 3.795680
34.000000 -82.400000 3.783734
34.300000 -82.400000 3.775522
34.600000 -82.400000 3.745090
34.900000 -82.400000 3.704561
35.200000 -82.400000 3.673227
35.500000 -82.400000 3.648481
35.800000 -82.400000 3.639099
36.100000 -82.400000 3.632917
36.400000 -82.400000 3.638685
36.700000 -82.400000 3.639719
37.000000 -82.400000 3.636685
37.300000 -82.400000 3.653970
37.600000 -82.400000 3.659669
37.900000 -82.400000 3.656512
38.200000 -82.400000 3.656248
38.500000 -82.400000 3.670375
38.800000 -82.400000 3.679120
39.100000 -82.400000 3.697184
39.400000 -82.400000 3.704835
39.700000 -82.400000 3.712690
40.000000 -82.400000 3.706823
40.300000 -82.400000 3.698120
40.600000 -82.400000 3.688617
40.900000 -82.400000 3.700310
41.200000 -82.400000 3.702157
41.500000 -82.400000 3.704387
41.800000 -82.400000 3.707429
42.100000 -82.400000 3.716730
42.700000 -82.400000 3.710825
45.700000 -82.400000 3.815172
46.000000 -82.400000 3.807391
46.300000 -82.400000 3.802305
27.400000 -82.100000 3.767343
27.700000 -82.100000 3.772511
28.000000 -82.100000 3.774696
28.600000 -82.100000 3.780744
28.900000 -82.100000 3.773888
29.200000 -82.100000 3.750978
29.500000 -82.100000 3.728542
29.800000 -82.100000 3.713450
30.100000 -82.100000 3.722874
30.400000 -82.100000 3.734377
30.700000 -82.100000 3.761146
31.000000 -82.100000 3.783119
31.300000 -82.100000 3.802587
31.600000 -82.100000 3.792600
31.900000 -82.100000 3.782486
32.200000 -82.100000 3.758620
32.500000 -82.100000 3.756907
32.800000 -82.100000 3.752554
33.100000 -82.100000 3.785732
33.400000 -82.100000 3.801429
33.700000 -82.100000 3.801910
34.000000 -82.100000 3.799790
34.300000 -82.100000 3.787892
34.600000 -82.100000 3.759543
34.900000 -82.100000 3.725749
35.200000 -82.100000 3.689530
35.500000 -82.100000 3.662937
35.800000 -82.100000 3.646645
36.100000 -82.100000 3.634981
36.400000 -82.100000 3.636954
36.700000 -82.100000 3.650370
37.000000 -82.100000 3.637683
37.300000 -82.100000 3.655728
37.600000 -82.100000 3.666559
37.900000 -82.100000 3.666075
38.200000 -82.100000 3.664317
38.500000 -82.100000 3.669985
38.800000 -82.100000 3.677753
39.100000 -82.100000 3.691411
39.400000 -82.100000 3.696620
39.700000 -82.100000 3.705635
40.000000 -82.100000 3.701524
40.300000 -82.100000 3.693317
40.600000 -82.100000 3.695496
40.900000 -82.100000 3.704586
41.200000 -82.100000 3.696408
41.500000 -82.100000 3.702649
41.800000 -82.100000 3.712930
42.100000 -82.100000 3.717435
42.400000 -82.100000 3.724027
42.700000 -82.100000 3.709648
43.000000 -82.100000 3.717621
45.700000 -82.100000 3.787547
46.300000 -82.100000 3.777540
46.600000 -82.100000 3.783571
46.900000 -82.100000 3.810380
26.800000 -81.800000 3.740770
27.100000 -81.800000 3.757841
27.400000 -81.800000 3.765437
27.700000 -81.800000 3.787214
28.000000 -81.800000 3.789491
28.300000 -81.800000 3.784580
28.600000 -81.800000 3.785022
28.900000 -81.800000 3.778374
29.200000 -81.800000 3.760392
29.500000 -81.800000 3.736878
29.800000 -81.800000 3.734917
30.100000 -81.800000 3.736699
30.400000 -81.800000 3.749738
30.700000 -81.800000 3.771808
31.000000 -81.800000 3.794659
31.300000 -81.800000 3.809507
31.600000 -81.800000 3.797313
31.900000 -81.800000 3.778730
32.200000 -81.800000 3.761922
32.500000 -81.800000 3.755827
32.800000 -81.800000 3.757515
33.100000 -81.800000 3.788959
33.400000 -81.800000 3.794416
33.700000 -81.800000 3.798254
34.000000 -81.800000 3.797733
34.300000 -81.800000 3.796637
34.600000 -81.800000 3.766511
34.900000 -81.800000 3.742787
35.200000 -81.800000 3.705771
35.500000 -81.800000 3.676026
35.800000 -81.800000 3.652054
36.100000 -81.800000 3.640950
36.400000 -81.800000 3.641673
36.700000 -81.800000 3.653835
37.000000 -81.800000 3.647059
37.300000 -81.800000 3.649141
37.600000 -81.800000 3.652589
37.900000 -81.800000 3.660192
38.200000 -81.800000 3.662472
38.500000 -81.800000 3.671233
38.800000 -81.800000 3.672182
39.100000 -81.800000 3.678878
39.400000 -81.800000 3.680175
39.700000 -81.800000 3.683874
40.000000 -81.800000 3.688715
40.300000 -81.800000 3.695670
40.600000 -81.800000 3.694212
40.900000 -81.800000 3.700939
41.200000 -81.800000 3.690947
41.500000 -81.800000 3.696765
42.400000 -81.800000 3.727401
42.700000 -81.800000 3.711147
46.300000 -81.800000 3.771535
46.600000 -81.800000 3.779859
46.900000 -81.800000 3.813889
26.800000 -81.500000 3.752715
27.100000 -81.500000 3.752540
27.400000 -81.500000 3.756167
27.700000 -81.500000 3.779361
28.000000 -81.500000 3.792667
28.300000 -81.500000 3.793330
28.600000 -81.500000 3.786265
28.900000 -81.500000 3.780952
29.200000 -81.500000 3.766768
29.500000 -81.500000 3.764873
29.800000 -81.500000 3.751555
31.300000 -81.500000 3.816852
31.600000 -81.500000 3.802508
31.900000 -81.500000 3.785298
32.200000 -81.500000 3.769108
32.500000 -81.500000 3.764183
32.800000 -81.500000 3.777944
33.100000 -81.500000 3.803330
33.400000 -81.500000 3.802241
33.700000 -81.500000 3.801393
34.000000 -81.500000 3.794968
34.300000 -81.500000 3.791410
34.600000 -81.500000 3.770492
34.900000 -81.500000 3.751997
35.200000 -81.500000 3.728159
35.500000 -81.500000 3.693770
35.800000 -81.500000 3.663468
36.100000 -81.500000 3.645996
36.400000 -81.500000 3.640866
36.700000 -81.500000 3.648473
37.000000 -81.500000 3.648201
37.300000 -81.500000 3.649373
37.600000 -81.500000 3.647510
37.900000 -81.500000 3.653761
38.200000 -81.500000 3.652510
38.500000 -81.500000 3.675295
38.800000 -81.500000 3.670486
39.100000 -81.500000 3.669765
39.400000 -81.500000 3.664526
39.700000 -81.500000 3.662986
40.000000 -81.500000 3.672082
40.300000 -81.500000 3.678488
40.600000 -81.500000 3.682393
40.900000 -81.500000 3.684423
41.200000 -81.500000 3.687182
41.500000 -81.500000 3.694190
42.400000 -81.500000 3.713024
42.700000 -81.500000 3.718135
46.900000 -81.500000 3.819221
47.200000 -81.500000 3.830922
26.800000 -81.200000 3.770847
27.100000 -81.200000 3.771130
27.400000 -81.200000 3.765521
27.700000 -81.200000 3.780725
28.000000 -81.200000 3.793158
28.600000 -81.200000 3.793226
31.600000 -81.200000 3.801409
31.900000 -81.200000 3.783922
32.200000 -81.200000 3.769266
32.500000 -81.200000 3.799534
32.800000 -81.200000 3.792725
33.100000 -81.200000 3.802381
33.400000 -81.200000 3.799865
33.700000 -81.200000 3.795760
34.000000 -81.200000 3.795794
34.300000 -81.200000 3.786712
34.600000 -81.200000 3.769249
34.900000 -81.200000 3.754102
35.200000 -81.200000 3.741719
35.500000 -81.200000 3.714727
35.800000 -81.200000 3.682646
36.100000 -81.200000 3.657178
36.400000 -81.200000 3.649705
36.700000 -81.200000 3.651405
37.000000 -81.200000 3.646175
37.300000 -81.200000 3.647713
37.600000 -81.200000 3.639198
37.900000 -81.200000 3.642479
38.200000 -81.200000 3.646489
38.500000 -81.200000 3.660979
38.800000 -81.200000 3.658831
39.100000 -81.200000 3.661907
39.400000 -81.200000 3.649700
39.700000 -81.200000 3.653036
40.000000 -81.200000 3.659998
40.300000 -81.200000 3.679696
40.600000 -81.200000 3.667629
40.900000 -81.200000 3.678774
41.200000 -81.200000 3.679621
41.500000 -81.200000 3.686715
41.800000 -81.200000 3.694810
42.100000 -81.200000 3.718871
42.400000 -81.200000 3.706798
42.700000 -81.200000 3.720868
43.000000 -81.200000 3.739376
43.600000 -81.200000 3.751004
46.300000 -81.200000 3.775991
46.900000 -81.200000 3.822595
27.400000 -80.900000 3.783997
27.700000 -80.900000 3.795004
32.200000 -80.900000 NaN
32.500000 -80.900000 3.810546
32.800000 -80.900000 3.803827
33.100000 -80.900000 3.808488
33.400000 -80.900000 3.795995
33.700000 -80.900000 3.798251
34.000000 -80.900000 3.797488
34.300000 -80.900000 3.789822
34.600000 -80.900000 3.773101
34.900000 -80.900000 3.752537
35.200000 -80.900000 3.747593
35.500000 -80.900000 3.728074
35.800000 -80.900000 3.700590
36.100000 -80.900000 3.676734
36.400000 -80.900000 3.658822
36.700000 -80.900000 3.658916
37.000000 -80.900000 3.653277
37.300000 -80.900000 3.645101
37.600000 -80.900000 3.628682
37.900000 -80.900000 3.628766
38.200000 -80.900000 3.646360
38.500000 -80.900000 3.660720
38.800000 -80.900000 3.658417
39.100000 -80.900000 3.654608
39.400000 -80.900000 3.639763
39.700000 -80.900000 3.653099
40.000000 -80.900000 3.658404
40.300000 -80.900000 3.667487
40.600000 -80.900000 3.663897
40.900000 -80.900000 3.664225
41.200000 -80.900000 3.677157
41.500000 -80.900000 3.679775
41.800000 -80.900000 3.693366
42.100000 -80.900000 3.685465
42.400000 -80.900000 3.690993
42.700000 -80.900000 3.704809
43.000000 -80.900000 3.738161
43.300000 -80.900000 3.752720
46.300000 -80.900000 3.798187
26.800000 -80.600000 3.770816
27.100000 -80.600000 3.782704
32.500000 -80.600000 3.798326
32.800000 -80.600000 3.798793
33.100000 -80.600000 3.808583
33.400000 -80.600000 3.802870
33.700000 -80.600000 3.796464
34.000000 -80.600000 3.809884
34.300000 -80.600000 3.793605
34.600000 -80.600000 3.778062
34.900000 -80.600000 3.764903
35.200000 -80.600000 3.760623
35.500000 -80.600000 3.742611
35.800000 -80.600000 3.723904
36.100000 -80.600000 3.706908
36.400000 -80.600000 3.680177
36.700000 -80.600000 3.669942
37.000000 -80.600000 3.660124
37.300000 -80.600000 3.647156
37.600000 -80.600000 3.626830
37.900000 -80.600000 3.615707
38.200000 -80.600000 3.626129
38.500000 -80.600000 3.641280
38.800000 -80.600000 3.663433
39.100000 -80.600000 3.663460
39.400000 -80.600000 3.656438
39.700000 -80.600000 3.666089
40.000000 -80.600000 3.662842
40.300000 -80.600000 3.665194
40.600000 -80.600000 3.653103
40.900000 -80.600000 3.657710
41.200000 -80.600000 3.671578
41.500000 -80.600000 3.673089
41.800000 -80.600000 3.679549
42.100000 -80.600000 3.669893
42.400000 -80.600000 3.670175
42.700000 -80.600000 3.695144
43.000000 -80.600000 3.725081
43.300000 -80.600000 3.748231
43.600000 -80.600000 3.758683
46.300000 -80.600000 3.808375
32.500000 -80.300000 3.791090
32.800000 -80.300000 3.800028
33.100000 -80.300000 3.806500
33.400000 -80.300000 3.806043
33.700000 -80.300000 3.804596
34.000000 -80.300000 3.801556
34.300000 -80.300000 3.787847
34.600000 -80.300000 3.777860
34.900000 -80.300000 3.770457
35.200000 -80.300000 3.770750
35.500000 -80.300000 3.757829
35.800000 -80.300000 3.747669
36.100000 -80.300000 3.727568
36.400000 -80.300000 3.708852
36.700000 -80.300000 3.688784
37.000000 -80.300000 3.674488
37.300000 -80.300000 3.651556
37.600000 -80.300000 3.625121
37.900000 -80.300000 3.608446
38.200000 -80.300000 3.610481
38.500000 -80.300000 3.630494
38.800000 -80.300000 3.654221
39.100000 -80.300000 3.670429
39.400000 -80.300000 3.675958
39.700000 -80.300000 3.690514
40.000000 -80.300000 3.677225
40.300000 -80.300000 3.663961
40.600000 -80.300000 3.654695
40.900000 -80.300000 3.666198
41.200000 -80.300000 3.666307
41.500000 -80.300000 3.665990
41.800000 -80.300000 3.670344
42.100000 -80.300000 3.666038
42.400000 -80.300000 3.658842
42.700000 -80.300000 3.693603
43.000000 -80.300000 3.717543
43.300000 -80.300000 3.756452
43.600000 -80.300000 3.764048
43.900000 -80.300000 3.764387
44.200000 -80.300000 3.763657
46.000000 -80.300000 3.809752
46.600000 -80.300000 3.836211
46.900000 -80.300000 3.837984
32.800000 -80.000000 3.785440
33.100000 -80.000000 3.803863
33.400000 -80.000000 3.807240
33.700000 -80.000000 3.807231
34.000000 -80.000000 3.788650
34.300000 -80.000000 3.777072
34.600000 -80.000000 3.774894
34.900000 -80.000000 3.769811
35.200000 -80.000000 3.780138
35.500000 -80.000000 3.773487
35.800000 -80.000000 3.765445
36.100000 -80.000000 3.755548
36.400000 -80.000000 3.738706
36.700000 -80.000000 3.709706
37.000000 -80.000000 3.693652
37.300000 -80.000000 3.665572
37.600000 -80.000000 3.631167
37.900000 -80.000000 3.610549
38.200000 -80.000000 3.597212
38.500000 -80.000000 3.622335
38.800000 -80.000000 3.648297
39.100000 -80.000000 3.676016
39.400000 -80.000000 3.693840
39.700000 -80.000000 3.712342
40.000000 -80.000000 3.703453
40.300000 -80.000000 3.679562
40.600000 -80.000000 3.677032
40.900000 -80.000000 3.679286
41.200000 -80.000000 3.676654
41.500000 -80.000000 3.663044
41.800000 -80.000000 3.666158
42.100000 -80.000000 3.658884
42.400000 -80.000000 3.659396
42.700000 -80.000000 3.690229
43.000000 -80.000000 3.730612
43.600000 -80.000000 3.780076
43.900000 -80.000000 3.779648
44.200000 -80.000000 3.787297
44.500000 -80.000000 3.781433
45.700000 -80.000000 3.781074
46.000000 -80.000000 3.785035
46.600000 -80.000000 3.833360
46.900000 -80.000000 3.835185
33.100000 -79.700000 3.802008
33.400000 -79.700000 3.800856
33.700000 -79.700000 3.799918
34.000000 -79.700000 3.793169
34.300000 -79.700000 3.776720
34.600000 -79.700000 3.781112
34.900000 -79.700000 3.772548
35.200000 -79.700000 3.785463
35.500000 -79.700000 3.780038
35.800000 -79.700000 3.782222
36.100000 -79.700000 3.778677
36.400000 -79.700000 3.769659
36.700000 -79.700000 3.747954
37.000000 -79.700000 3.719137
37.300000 -79.700000 3.687727
37.600000 -79.700000 3.650456
37.900000 -79.700000 3.621344
38.200000 -79.700000 3.605820
38.500000 -79.700000 3.631650
38.800000 -79.700000 3.646782
39.100000 -79.700000 3.676285
39.400000 -79.700000 3.696762
39.700000 -79.700000 3.722287
40.000000 -79.700000 3.703170
40.300000 -79.700000 3.691858
40.600000 -79.700000 3.680609
40.900000 -79.700000 3.676331
41.200000 -79.700000 3.677521
41.500000 -79.700000 3.661835
41.800000 -79.700000 3.648173
42.100000 -79.700000 3.653504
42.400000 -79.700000 3.656501
43.000000 -79.700000 3.716861
43.600000 -79.700000 3.772952
43.900000 -79.700000 3.806751
44.200000 -79.700000 3.797686
44.500000 -79.700000 3.786110
45.700000 -79.700000 3.780069
46.000000 -79.700000 3.785354
46.300000 -79.700000 3.797492
46.600000 -79.700000 3.829120
46.900000 -79.700000 3.829338
33.100000 -79.400000 3.800141
33.400000 -79.400000 3.799927
33.700000 -79.400000 3.784968
34.000000 -79.400000 3.792982
34.300000 -79.400000 3.790541
34.600000 -79.400000 3.790044
34.900000 -79.400000 3.778400
35.200000 -79.400000 3.781071
35.500000 -79.400000 3.784682
35.800000 -79.400000 3.793439
36.100000 -79.400000 3.794357
36.400000 -79.400000 3.789312
36.700000 -79.400000 3.770978
37.000000 -79.400000 3.747840
37.300000 -79.400000 3.699562
37.600000 -79.400000 3.668310
37.900000 -79.400000 3.647990
38.200000 -79.400000 3.640320
38.500000 -79.400000 3.643954
38.800000 -79.400000 3.650929
39.100000 -79.400000 3.674653
39.400000 -79.400000 3.684735
39.700000 -79.400000 3.703615
40.000000 -79.400000 3.694941
40.300000 -79.400000 3.686937
40.600000 -79.400000 3.684609
40.900000 -79.400000 3.682945
41.200000 -79.400000 3.665095
41.500000 -79.400000 3.665912
41.800000 -79.400000 3.653459
42.100000 -79.400000 3.657799
42.400000 -79.400000 3.661136
42.700000 -79.400000 3.690568
43.000000 -79.400000 3.722120
43.300000 -79.400000 3.725465
43.600000 -79.400000 3.758784
43.900000 -79.400000 3.790376
45.400000 -79.400000 3.787784
45.700000 -79.400000 3.781435
46.000000 -79.400000 3.778006
46.300000 -79.400000 3.783116
46.600000 -79.400000 3.820555
46.900000 -79.400000 3.821786
33.400000 -79.100000 3.788773
33.700000 -79.100000 3.787494
34.000000 -79.100000 3.799785
34.300000 -79.100000 3.803805
34.600000 -79.100000 3.798517
34.900000 -79.100000 3.778324
35.200000 -79.100000 3.770318
35.500000 -79.100000 3.782820
35.800000 -79.100000 3.792523
36.100000 -79.100000 3.797540
36.400000 -79.100000 3.804427
36.700000 -79.100000 3.792873
37.000000 -79.100000 3.770440
37.300000 -79.100000 3.722536
37.600000 -79.100000 3.706286
37.900000 -79.100000 3.679357
38.200000 -79.100000 3.666008
38.500000 -79.100000 3.662453
38.800000 -79.100000 3.661260
39.100000 -79.100000 3.673059
39.400000 -79.100000 3.676068
39.700000 -79.100000 3.679902
40.000000 -79.100000 3.683084
40.300000 -79.100000 3.693835
40.600000 -79.100000 3.692847
40.900000 -79.100000 3.683669
41.200000 -79.100000 3.682541
41.500000 -79.100000 3.675212
41.800000 -79.100000 3.662752
42.100000 -79.100000 3.660753
42.400000 -79.100000 3.666865
42.700000 -79.100000 3.684752
43.000000 -79.100000 3.705913
43.300000 -79.100000 3.713007
44.800000 -79.100000 3.798280
45.100000 -79.100000 3.795703
45.400000 -79.100000 3.782570
45.700000 -79.100000 3.777574
46.000000 -79.100000 3.773639
46.300000 -79.100000 3.786526
46.600000 -79.100000 3.814123
46.900000 -79.100000 3.819152
33.700000 -78.800000 3.788184
34.000000 -78.800000 3.800272
34.300000 -78.800000 3.812335
34.600000 -78.800000 3.807858
34.900000 -78.800000 3.783204
35.200000 -78.800000 3.773301
35.500000 -78.800000 3.780305
35.800000 -78.800000 3.788358
36.100000 -78.800000 3.800083
36.400000 -78.800000 3.808010
36.700000 -78.800000 3.807626
37.000000 -78.800000 3.791272
37.300000 -78.800000 3.761514
37.600000 -78.800000 3.731126
37.900000 -78.800000 3.710728
38.200000 -78.800000 3.695850
38.500000 -78.800000 3.689822
38.800000 -78.800000 3.678757
39.100000 -78.800000 3.683103
39.400000 -78.800000 3.674589
39.700000 -78.800000 3.682046
40.000000 -78.800000 3.682338
40.300000 -78.800000 3.703328
40.600000 -78.800000 3.698872
40.900000 -78.800000 3.693864
41.200000 -78.800000 3.690246
41.500000 -78.800000 3.678515
41.800000 -78.800000 3.672815
42.100000 -78.800000 3.664038
42.400000 -78.800000 3.677142
42.700000 -78.800000 3.694018
43.000000 -78.800000 3.698100
43.300000 -78.800000 3.702432
43.900000 -78.800000 3.728906
44.500000 -78.800000 3.776903
44.800000 -78.800000 3.791993
45.100000 -78.800000 3.797939
45.400000 -78.800000 3.782577
45.700000 -78.800000 3.781823
46.000000 -78.800000 3.785086
46.300000 -78.800000 3.777292
46.600000 -78.800000 3.794922
46.900000 -78.800000 3.809220
33.700000 -78.500000 3.798148
34.000000 -78.500000 3.814342
34.300000 -78.500000 3.817436
34.600000 -78.500000 3.813788
34.900000 -78.500000 3.796062
35.200000 -78.500000 3.787667
35.500000 -78.500000 3.782605
35.800000 -78.500000 3.788300
36.100000 -78.500000 3.792675
36.400000 -78.500000 3.803341
36.700000 -78.500000 3.807837
37.000000 -78.500000 3.807248
37.300000 -78.500000 3.785295
37.600000 -78.500000 3.752596
37.900000 -78.500000 3.735252
38.200000 -78.500000 3.721626
38.500000 -78.500000 3.714169
38.800000 -78.500000 3.705313
39.100000 -78.500000 3.696286
39.400000 -78.500000 3.686762
39.700000 -78.500000 3.687320
40.000000 -78.500000 3.687259
40.300000 -78.500000 3.702681
40.600000 -78.500000 3.706635
40.900000 -78.500000 3.697244
41.200000 -78.500000 3.690734
41.500000 -78.500000 3.690109
41.800000 -78.500000 3.678455
42.100000 -78.500000 3.678087
42.400000 -78.500000 3.684514
42.700000 -78.500000 3.689111
43.000000 -78.500000 3.691436
43.300000 -78.500000 3.710027
44.200000 -78.500000 3.736594
44.500000 -78.500000 3.762396
44.800000 -78.500000 3.782606
45.100000 -78.500000 3.788448
45.400000 -78.500000 3.791836
46.000000 -78.500000 3.786460
46.300000 -78.500000 3.778504
46.600000 -78.500000 3.781648
46.900000 -78.500000 3.793146
34.000000 -78.200000 3.819212
34.300000 -78.200000 3.831566
34.600000 -78.200000 3.814296
34.900000 -78.200000 3.805417
35.200000 -78.200000 3.800053
35.500000 -78.200000 3.783501
35.800000 -78.200000 3.784671
36.100000 -78.200000 3.789045
36.400000 -78.200000 3.796923
36.700000 -78.200000 3.800519
37.000000 -78.200000 3.806088
37.300000 -78.200000 3.800710
37.600000 -78.200000 3.780413
37.900000 -78.200000 3.764519
38.200000 -78.200000 3.747179
38.500000 -78.200000 3.744077
38.800000 -78.200000 3.733650
39.100000 -78.200000 3.712767
39.400000 -78.200000 3.698277
39.700000 -78.200000 3.694482
40.000000 -78.200000 3.690818
40.300000 -78.200000 3.702603
40.600000 -78.200000 3.703081
40.900000 -78.200000 3.694006
41.200000 -78.200000 3.682133
41.500000 -78.200000 3.686609
41.800000 -78.200000 3.680750
42.100000 -78.200000 3.686251
42.400000 -78.200000 3.693097
42.700000 -78.200000 3.695935
43.000000 -78.200000 3.696129
43.600000 -78.200000 3.702660
44.200000 -78.200000 3.727389
44.500000 -78.200000 3.750862
44.800000 -78.200000 3.772846
45.100000 -78.200000 3.784557
45.400000 -78.200000 3.799807
45.700000 -78.200000 3.793155
46.000000 -78.200000 3.779327
46.300000 -78.200000 3.775324
46.600000 -78.200000 3.759781
46.900000 -78.200000 3.771417
34.600000 -77.900000 3.809451
34.900000 -77.900000 3.815234
35.200000 -77.900000 3.806614
35.500000 -77.900000 3.783922
35.800000 -77.900000 3.783657
36.100000 -77.900000 3.785097
36.400000 -77.900000 3.803141
36.700000 -77.900000 3.804747
37.000000 -77.900000 3.809476
37.300000 -77.900000 3.801960
37.600000 -77.900000 3.799334
37.900000 -77.900000 3.794590
38.200000 -77.900000 3.779394
38.500000 -77.900000 3.775203
38.800000 -77.900000 3.759853
39.100000 -77.900000 3.737011
39.400000 -77.900000 3.718487
39.700000 -77.900000 3.703013
40.000000 -77.900000 3.698662
40.300000 -77.900000 3.700391
40.600000 -77.900000 3.698604
40.900000 -77.900000 3.692182
41.200000 -77.900000 3.674967
41.500000 -77.900000 3.677569
41.800000 -77.900000 3.684106
42.100000 -77.900000 3.692192
42.400000 -77.900000 3.696509
42.700000 -77.900000 3.697875
43.000000 -77.900000 3.700355
43.300000 -77.900000 3.712439
43.600000 -77.900000 3.712594
43.900000 -77.900000 3.726027
44.200000 -77.900000 3.749866
44.500000 -77.900000 3.755886
44.800000 -77.900000 3.760319
45.100000 -77.900000 3.785494
45.700000 -77.900000 3.766791
46.000000 -77.900000 3.759999
46.300000 -77.900000 3.774853
46.600000 -77.900000 3.758798
46.900000 -77.900000 3.759663
34.900000 -77.600000 3.790304
35.200000 -77.600000 3.809782
35.500000 -77.600000 3.801430
35.800000 -77.600000 3.796241
36.100000 -77.600000 3.788497
36.400000 -77.600000 3.805245
36.700000 -77.600000 3.806176
37.000000 -77.600000 3.802138
37.300000 -77.600000 3.808350
37.600000 -77.600000 3.807229
37.900000 -77.600000 3.809834
38.200000 -77.600000 3.813583
38.500000 -77.600000 3.795112
38.800000 -77.600000 3.785086
39.100000 -77.600000 3.759502
39.400000 -77.600000 3.743339
39.700000 -77.600000 3.720093
40.000000 -77.600000 3.700421
40.300000 -77.600000 3.697483
40.600000 -77.600000 3.702161
40.900000 -77.600000 3.696135
41.200000 -77.600000 3.671475
41.500000 -77.600000 3.672828
41.800000 -77.600000 3.683726
42.100000 -77.600000 3.694328
42.400000 -77.600000 3.696595
42.700000 -77.600000 3.697961
43.000000 -77.600000 3.702056
43.300000 -77.600000 3.715522
43.600000 -77.600000 3.720947
43.900000 -77.600000 3.739129
44.200000 -77.600000 3.754058
44.500000 -77.600000 3.747237
44.800000 -77.600000 3.745517
46.000000 -77.600000 3.787941
46.300000 -77.600000 3.783735
46.600000 -77.600000 3.766192
46.900000 -77.600000 3.755127
34.900000 -77.300000 3.798262
35.200000 -77.300000 3.818157
35.500000 -77.300000 3.805540
35.800000 -77.300000 3.803906
36.100000 -77.300000 3.804753
36.400000 -77.300000 3.810044
36.700000 -77.300000 3.810354
37.000000 -77.300000 3.803270
37.300000 -77.300000 3.806111
37.600000 -77.300000 3.807991
37.900000 -77.300000 3.806838
38.200000 -77.300000 3.810209
38.500000 -77.300000 3.805680
38.800000 -77.300000 3.806190
39.100000 -77.300000 3.785377
39.400000 -77.300000 3.760272
39.700000 -77.300000 3.727643
40.000000 -77.300000 3.705607
40.300000 -77.300000 3.695306
40.600000 -77.300000 3.697502
40.900000 -77.300000 3.698077
41.200000 -77.300000 3.683137
41.500000 -77.300000 3.675315
41.800000 -77.300000 3.675133
42.100000 -77.300000 3.683288
42.400000 -77.300000 3.689621
42.700000 -77.300000 3.692118
43.000000 -77.300000 3.706387
43.300000 -77.300000 3.722486
43.600000 -77.300000 3.733247
43.900000 -77.300000 3.750224
44.200000 -77.300000 3.744671
44.500000 -77.300000 3.751885
44.800000 -77.300000 NaN
45.400000 -77.300000 3.780111
46.000000 -77.300000 3.804299
46.300000 -77.300000 3.790292
35.200000 -77.000000 3.819823
35.500000 -77.000000 3.831060
35.800000 -77.000000 3.811320
36.100000 -77.000000 3.801507
36.400000 -77.000000 3.828861
36.700000 -77.000000 3.815591
37.000000 -77.000000 3.795022
37.300000 -77.000000 3.799495
37.600000 -77.000000 3.806834
37.900000 -77.000000 3.806984
38.200000 -77.000000 3.806672
38.500000 -77.000000 3.818700
38.800000 -77.000000 3.821388
39.100000 -77.000000 3.802782
39.400000 -77.000000 3.775319
39.700000 -77.000000 3.735131
40.000000 -77.000000 3.709568
40.300000 -77.000000 3.694094
40.600000 -77.000000 3.692656
40.900000 -77.000000 3.698099
41.200000 -77.000000 3.695018
41.500000 -77.000000 3.689745
41.800000 -77.000000 3.675448
42.100000 -77.000000 3.677316
42.400000 -77.000000 3.691777
42.700000 -77.000000 3.694191
43.000000 -77.000000 3.711982
43.300000 -77.000000 3.729994
44.200000 -77.000000 3.759352
44.500000 -77.000000 3.749146
44.800000 -77.000000 3.749241
45.100000 -77.000000 3.765466
45.400000 -77.000000 3.783801
45.700000 -77.000000 3.788189
46.000000 -77.000000 3.796597
46.300000 -77.000000 3.777914
46.600000 -77.000000 3.758335
46.900000 -77.000000 3.769225
35.200000 -76.700000 3.824971
35.500000 -76.700000 3.830462
35.800000 -76.700000 3.820803
36.100000 -76.700000 3.793011
36.400000 -76.700000 3.824738
36.700000 -76.700000 3.810129
37.000000 -76.700000 3.796045
37.300000 -76.700000 3.793038
37.600000 -76.700000 3.792346
37.900000 -76.700000 3.795642
38.200000 -76.700000 3.797596
38.500000 -76.700000 3.801747
38.800000 -76.700000 3.814542
39.100000 -76.700000 3.809311
39.400000 -76.700000 3.786411
39.700000 -76.700000 3.742952
40.000000 -76.700000 3.712672
40.300000 -76.700000 3.695777
40.600000 -76.700000 3.696170
40.900000 -76.700000 3.713868
41.200000 -76.700000 3.704572
41.500000 -76.700000 3.692898
41.800000 -76.700000 3.683400
42.100000 -76.700000 3.688216
42.400000 -76.700000 3.700161
42.700000 -76.700000 3.703723
43.000000 -76.700000 3.713975
43.300000 -76.700000 3.726158
43.600000 -76.700000 3.753939
43.900000 -76.700000 3.753160
44.200000 -76.700000 3.750725
44.500000 -76.700000 3.750380
44.800000 -76.700000 3.746795
45.100000 -76.700000 3.754221
45.400000 -76.700000 3.773485
45.700000 -76.700000 3.787211
46.300000 -76.700000 3.768309
46.600000 -76.700000 3.758994
46.900000 -76.700000 3.760787
35.500000 -76.400000 3.793986
37.300000 -76.400000 3.807652
37.600000 -76.400000 3.783473
37.900000 -76.400000 3.779884
38.200000 -76.400000 3.780174
38.500000 -76.400000 3.783975
38.800000 -76.400000 3.798909
39.100000 -76.400000 3.811475
39.400000 -76.400000 3.797270
39.700000 -76.400000 3.757146
40.000000 -76.400000 3.711456
40.300000 -76.400000 3.697007
40.600000 -76.400000 3.695338
40.900000 -76.400000 3.707622
41.200000 -76.400000 3.708624
41.500000 -76.400000 3.708108
41.800000 -76.400000 3.710716
42.100000 -76.400000 3.701943
42.400000 -76.400000 3.710078
42.700000 -76.400000 3.703103
43.000000 -76.400000 3.712989
43.300000 -76.400000 3.729736
43.600000 -76.400000 3.747965
43.900000 -76.400000 3.747054
44.200000 -76.400000 3.752253
44.500000 -76.400000 3.746014
44.800000 -76.400000 3.727440
45.100000 -76.400000 3.743819
45.400000 -76.400000 3.747875
45.700000 -76.400000 3.766621
46.000000 -76.400000 3.755134
46.300000 -76.400000 3.761774
46.600000 -76.400000 3.771377
46.900000 -76.400000 3.748903
35.500000 -76.100000 3.780658
37.300000 -76.100000 3.798356
37.600000 -76.100000 3.778595
37.900000 -76.100000 3.770535
38.200000 -76.100000 3.768551
38.500000 -76.100000 3.774079
38.800000 -76.100000 3.797036
39.100000 -76.100000 3.817996
39.400000 -76.100000 3.795790
39.700000 -76.100000 3.755340
40.000000 -76.100000 3.720737
40.300000 -76.100000 3.691570
40.600000 -76.100000 3.686183
40.900000 -76.100000 3.699853
41.200000 -76.100000 3.711852
41.500000 -76.100000 3.725848
41.800000 -76.100000 3.727684
42.100000 -76.100000 3.728058
42.400000 -76.100000 3.727905
42.700000 -76.100000 3.714743
43.000000 -76.100000 3.712752
43.300000 -76.100000 3.730949
43.600000 -76.100000 3.731568
43.900000 -76.100000 3.741318
44.200000 -76.100000 3.737875
44.500000 -76.100000 3.723728
45.400000 -76.100000 3.745525
46.300000 -76.100000 3.750768
46.600000 -76.100000 3.764395
46.900000 -76.100000 3.739757
37.600000 -75.800000 3.773790
37.900000 -75.800000 3.764085
38.200000 -75.800000 3.752120
38.500000 -75.800000 3.778505
38.800000 -75.800000 3.798158
39.100000 -75.800000 3.820079
39.400000 -75.800000 3.811020
39.700000 -75.800000 3.784460
40.000000 -75.800000 3.739449
40.300000 -75.800000 3.697563
40.600000 -75.800000 3.699261
40.900000 -75.800000 3.711460
41.200000 -75.800000 3.717117
41.500000 -75.800000 3.727457
41.800000 -75.800000 3.750226
42.100000 -75.800000 3.733394
42.400000 -75.800000 3.738813
42.700000 -75.800000 3.733219
43.000000 -75.800000 3.733492
43.300000 -75.800000 3.733949
43.600000 -75.800000 3.731792
43.900000 -75.800000 3.741418
44.200000 -75.800000 3.733731
44.500000 -75.800000 3.736313
44.800000 -75.800000 3.734340
45.400000 -75.800000 3.730465
46.000000 -75.800000 3.739552
46.300000 -75.800000 3.741081
46.600000 -75.800000 3.751987
46.900000 -75.800000 3.746446
38.200000 -75.500000 3.754592
38.500000 -75.500000 3.771328
38.800000 -75.500000 3.801753
39.100000 -75.500000 3.820387
39.400000 -75.500000 3.811865
39.700000 -75.500000 3.793254
40.000000 -75.500000 3.753915
40.300000 -75.500000 3.714948
40.600000 -75.500000 3.707650
40.900000 -75.500000 3.717246
41.200000 -75.500000 3.727453
41.500000 -75.500000 3.743846
41.800000 -75.500000 3.749059
42.100000 -75.500000 3.745114
42.400000 -75.500000 3.744398
42.700000 -75.500000 3.737875
43.000000 -75.500000 3.753485
43.300000 -75.500000 3.744058
43.600000 -75.500000 3.746131
43.900000 -75.500000 3.743916
44.200000 -75.500000 3.747830
44.500000 -75.500000 3.752591
45.100000 -75.500000 3.735520
46.300000 -75.500000 3.726146
46.600000 -75.500000 3.759768
46.900000 -75.500000 3.750043
39.100000 -75.200000 3.812048
39.400000 -75.200000 3.826034
39.700000 -75.200000 3.807279
40.000000 -75.200000 3.777851
40.300000 -75.200000 3.742074
40.600000 -75.200000 3.731294
40.900000 -75.200000 3.731781
41.200000 -75.200000 3.730994
41.500000 -75.200000 3.749897
41.800000 -75.200000 3.748533
42.100000 -75.200000 3.759388
42.400000 -75.200000 3.759793
42.700000 -75.200000 3.748165
43.000000 -75.200000 3.760117
43.300000 -75.200000 3.763183
43.600000 -75.200000 3.767243
43.900000 -75.200000 3.750905
44.200000 -75.200000 3.754760
44.500000 -75.200000 3.763168
44.800000 -75.200000 3.773265
45.100000 -75.200000 3.761073
45.700000 -75.200000 NaN
46.000000 -75.200000 3.743915
46.300000 -75.200000 3.750443
46.600000 -75.200000 3.770282
46.900000 -75.200000 3.762371
39.400000 -74.900000 3.847062
39.700000 -74.900000 3.826792
40.000000 -74.900000 3.796168
40.300000 -74.900000 3.778217
40.600000 -74.900000 3.762827
40.900000 -74.900000 3.752030
41.200000 -74.900000 3.742347
41.500000 -74.900000 3.743489
41.800000 -74.900000 3.740025
42.100000 -74.900000 3.737874
42.400000 -74.900000 3.734844
42.700000 -74.900000 3.741113
43.000000 -74.900000 3.765128
43.300000 -74.900000 3.776728
43.600000 -74.900000 3.777889
43.900000 -74.900000 3.773140
44.200000 -74.900000 3.765997
44.500000 -74.900000 3.767732
44.800000 -74.900000 3.773213
45.100000 -74.900000 3.761092
45.400000 -74.900000 3.763755
45.700000 -74.900000 3.763235
46.000000 -74.900000 3.759214
46.300000 -74.900000 3.762901
46.600000 -74.900000 3.769713
46.900000 -74.900000 3.758720
40.000000 -74.600000 3.822477
40.300000 -74.600000 3.800911
40.600000 -74.600000 3.788058
40.900000 -74.600000 3.779142
41.200000 -74.600000 3.757746
41.500000 -74.600000 3.740615
41.800000 -74.600000 3.726579
42.100000 -74.600000 3.708673
42.400000 -74.600000 3.712147
42.700000 -74.600000 3.728581
43.000000 -74.600000 3.761129
43.300000 -74.600000 3.788311
43.600000 -74.600000 3.792867
43.900000 -74.600000 3.790361
44.200000 -74.600000 3.780900
44.500000 -74.600000 3.776799
44.800000 -74.600000 3.769436
45.100000 -74.600000 3.768258
45.400000 -74.600000 3.775733
45.700000 -74.600000 3.775236
46.000000 -74.600000 3.761598
46.300000 -74.600000 3.765622
46.600000 -74.600000 3.761689
46.900000 -74.600000 3.751864
40.300000 -74.300000 3.829592
40.600000 -74.300000 3.805552
40.900000 -74.300000 3.800333
41.200000 -74.300000 3.782914
41.500000 -74.300000 3.759346
41.800000 -74.300000 3.725658
42.100000 -74.300000 3.698069
42.400000 -74.300000 3.679545
42.700000 -74.300000 3.700694
43.000000 -74.300000 3.750300
43.300000 -74.300000 3.778661
43.600000 -74.300000 3.797973
43.900000 -74.300000 3.797435
44.200000 -74.300000 3.789693
44.500000 -74.300000 3.775375
44.800000 -74.300000 3.774565
45.100000 -74.300000 3.778853
45.400000 -74.300000 3.780143
45.700000 -74.300000 3.782287
46.000000 -74.300000 3.775163
46.300000 -74.300000 3.764869
46.600000 -74.300000 3.756098
46.900000 -74.300000 3.738763
40.600000 -74.000000 3.842492
40.900000 -74.000000 3.828496
41.200000 -74.000000 3.809480
41.500000 -74.000000 3.777461
41.800000 -74.000000 3.729679
42.100000 -74.000000 3.683725
42.400000 -74.000000 3.670891
42.700000 -74.000000 3.697823
43.000000 -74.000000 3.736548
43.300000 -74.000000 3.770270
43.600000 -74.000000 3.800028
43.900000 -74.000000 3.796111
44.200000 -74.000000 3.779028
44.500000 -74.000000 3.770880
44.800000 -74.000000 3.777949
45.100000 -74.000000 3.775917
45.400000 -74.000000 3.783064
45.700000 -74.000000 3.789205
46.000000 -74.000000 3.777302
46.300000 -74.000000 3.754724
46.600000 -74.000000 3.745056
46.900000 -74.000000 3.731963
40.600000 -73.700000 3.874650
40.900000 -73.700000 3.879020
41.200000 -73.700000 3.838719
41.500000 -73.700000 3.794626
41.800000 -73.700000 3.757028
42.100000 -73.700000 3.700474
42.400000 -73.700000 3.668065
42.700000 -73.700000 3.684415
43.000000 -73.700000 3.722825
43.300000 -73.700000 3.757864
43.600000 -73.700000 3.777573
43.900000 -73.700000 3.785531
44.200000 -73.700000 3.766712
44.500000 -73.700000 3.768061
44.800000 -73.700000 3.774815
45.100000 -73.700000 3.780431
45.400000 -73.700000 3.799772
45.700000 -73.700000 3.792190
46.000000 -73.700000 3.795697
46.300000 -73.700000 3.770955
46.600000 -73.700000 3.745763
46.900000 -73.700000 3.735809
40.900000 -73.400000 3.891554
41.200000 -73.400000 3.859382
41.500000 -73.400000 3.825727
41.800000 -73.400000 3.794171
42.100000 -73.400000 3.737090
42.400000 -73.400000 3.693250
42.700000 -73.400000 3.691732
43.000000 -73.400000 3.705968
43.300000 -73.400000 3.740318
43.600000 -73.400000 3.762454
43.900000 -73.400000 3.759833
44.200000 -73.400000 3.756970
44.500000 -73.400000 3.749076
44.800000 -73.400000 3.778485
45.100000 -73.400000 3.784355
45.400000 -73.400000 3.794673
45.700000 -73.400000 3.801005
46.000000 -73.400000 3.796659
46.300000 -73.400000 3.783261
46.600000 -73.400000 3.756705
46.900000 -73.400000 3.747079
40.900000 -73.100000 3.885317
41.200000 -73.100000 3.869945
41.500000 -73.100000 3.850509
41.800000 -73.100000 3.823172
42.100000 -73.100000 3.778619
42.400000 -73.100000 3.731507
42.700000 -73.100000 3.701734
43.000000 -73.100000 3.699681
43.300000 -73.100000 3.724774
43.600000 -73.100000 3.740092
43.900000 -73.100000 3.748991
44.200000 -73.100000 3.741342
44.500000 -73.100000 3.727621
44.800000 -73.100000 3.771012
45.100000 -73.100000 3.782229
45.400000 -73.100000 3.783875
45.700000 -73.100000 3.797618
46.000000 -73.100000 3.803818
46.300000 -73.100000 3.779318
46.600000 -73.100000 3.765985
46.900000 -73.100000 3.760032
40.900000 -72.800000 3.879269
41.200000 -72.800000 3.875816
41.500000 -72.800000 3.858862
41.800000 -72.800000 3.843330
42.100000 -72.800000 3.819666
42.400000 -72.800000 3.754575
42.700000 -72.800000 3.736596
43.000000 -72.800000 3.715058
43.300000 -72.800000 3.737595
43.600000 -72.800000 3.743123
43.900000 -72.800000 3.736627
44.200000 -72.800000 3.740414
44.500000 -72.800000 3.721361
44.800000 -72.800000 3.745728
45.100000 -72.800000 3.737750
45.400000 -72.800000 3.778910
45.700000 -72.800000 3.792281
46.000000 -72.800000 3.777977
46.300000 -72.800000 3.776537
46.600000 -72.800000 3.778683
46.900000 -72.800000 3.765987
40.900000 -72.500000 3.899962
41.200000 -72.500000 3.851299
41.500000 -72.500000 3.853565
41.800000 -72.500000 3.838842
42.100000 -72.500000 3.826691
42.400000 -72.500000 3.796780
42.700000 -72.500000 3.762423
43.000000 -72.500000 3.750256
43.300000 -72.500000 3.751540
43.600000 -72.500000 3.749067
43.900000 -72.500000 3.744821
44.200000 -72.500000 3.732650
44.500000 -72.500000 3.707226
44.800000 -72.500000 3.723185
45.100000 -72.500000 3.742877
45.400000 -72.500000 3.750082
45.700000 -72.500000 3.758368
46.000000 -72.500000 3.760537
46.300000 -72.500000 3.771849
46.600000 -72.500000 3.774478
46.900000 -72.500000 3.760157
41.200000 -72.200000 3.851594
41.500000 -72.200000 3.847840
41.800000 -72.200000 3.828013
42.100000 -72.200000 3.833652
42.400000 -72.200000 3.808796
42.700000 -72.200000 3.787376
