48.100000 -121.700000 3.934400
48.400000 -121.700000 3.920927
48.700000 -121.700000 3.909605
49.000000 -121.700000 3.901964
35.800000 -121.400000 3.875125
36.100000 -121.400000 3.866395
36.400000 -121.400000 3.859216
36.700000 -121.400000 3.851947
37.000000 -121.400000 3.849277
37.300000 -121.400000 3.848506
37.600000 -121.400000 3.848632
37.900000 -121.400000 3.850852
38.200000 -121.400000 3.857260
38.500000 -121.400000 3.866134
38.800000 -121.400000 3.873067
39.100000 -121.400000 3.875226
39.400000 -121.400000 3.872403
39.700000 -121.400000 3.863204
40.000000 -121.400000 3.849154
40.300000 -121.400000 3.834076
40.600000 -121.400000 3.820280
40.900000 -121.400000 3.808415
41.200000 -121.400000 3.795019
41.500000 -121.400000 3.787346
41.800000 -121.400000 3.783203
42.100000 -121.400000 3.780235
42.400000 -121.400000 3.778362
42.700000 -121.400000 3.777454
43.000000 -121.400000 3.779234
43.300000 -121.400000 3.783007
43.600000 -121.400000 3.792970
43.900000 -121.400000 3.806857
44.200000 -121.400000 3.823276
44.500000 -121.400000 3.836609
44.800000 -121.400000 3.843245
45.100000 -121.400000 3.843562
45.400000 -121.400000 3.840055
45.700000 -121.400000 3.836357
46.000000 -121.400000 3.840580
46.300000 -121.400000 3.854195
46.600000 -121.400000 3.874888
46.900000 -121.400000 3.899286
47.200000 -121.400000 3.919601
47.500000 -121.400000 3.932979
47.800000 -121.400000 3.935002
48.100000 -121.400000 3.926982
48.400000 -121.400000 3.914863
48.700000 -121.400000 3.903080
49.000000 -121.400000 3.897023
35.500000 -121.100000 3.885992
35.800000 -121.100000 3.882115
36.100000 -121.100000 3.873885
36.400000 -121.100000 3.867154
36.700000 -121.100000 3.859643
37.000000 -121.100000 3.855465
37.300000 -121.100000 3.852681
37.600000 -121.100000 3.854109
37.900000 -121.100000 3.856840
38.200000 -121.100000 3.864248
38.500000 -121.100000 3.870751
38.800000 -121.100000 3.875150
39.100000 -121.100000 3.872168
39.400000 -121.100000 3.863090
39.700000 -121.100000 3.848443
40.000000 -121.100000 3.829984
40.300000 -121.100000 3.814905
40.600000 -121.100000 3.803035
40.900000 -121.100000 3.794223
41.200000 -121.100000 3.783245
41.500000 -121.100000 3.773934
41.800000 -121.100000 3.769068
42.100000 -121.100000 3.766467
42.400000 -121.100000 3.765591
42.700000 -121.100000 3.766668
43.000000 -121.100000 3.768342
43.300000 -121.100000 3.772836
43.600000 -121.100000 3.781950
43.900000 -121.100000 3.796612
44.200000 -121.100000 3.813354
44.500000 -121.100000 3.828794
44.800000 -121.100000 3.837262
45.100000 -121.100000 3.838311
45.400000 -121.100000 3.834063
45.700000 -121.100000 3.830602
46.000000 -121.100000 3.835633
46.300000 -121.100000 3.850191
46.600000 -121.100000 3.870736
46.900000 -121.100000 3.894164
47.200000 -121.100000 3.913688
47.500000 -121.100000 3.926790
47.800000 -121.100000 3.929206
48.100000 -121.100000 3.921086
48.400000 -121.100000 3.909215
48.700000 -121.100000 3.897134
34.600000 -120.800000 3.890017
35.200000 -120.800000 3.897807
35.500000 -120.800000 3.893090
35.800000 -120.800000 3.888956
36.100000 -120.800000 3.885542
36.400000 -120.800000 3.878182
36.700000 -120.800000 3.869119
37.000000 -120.800000 3.861204
37.300000 -120.800000 3.856020
37.600000 -120.800000 3.853903
37.900000 -120.800000 3.855769
38.200000 -120.800000 3.861712
38.500000 -120.800000 3.866808
38.800000 -120.800000 3.867324
39.100000 -120.800000 3.861403
39.400000 -120.800000 3.849077
39.700000 -120.800000 3.831603
40.000000 -120.800000 3.811874
40.300000 -120.800000 3.797483
40.600000 -120.800000 3.789137
40.900000 -120.800000 3.782389
41.200000 -120.800000 3.774376
41.500000 -120.800000 3.766806
41.800000 -120.800000 3.762428
42.100000 -120.800000 3.760084
42.400000 -120.800000 3.758887
42.700000 -120.800000 3.759688
43.000000 -120.800000 3.761104
43.300000 -120.800000 3.766524
43.600000 -120.800000 3.775421
43.900000 -120.800000 3.790515
44.200000 -120.800000 3.807538
44.500000 -120.800000 3.825426
44.800000 -120.800000 3.835460
45.100000 -120.800000 3.837866
45.400000 -120.800000 3.833954
45.700000 -120.800000 3.832559
46.000000 -120.800000 3.838819
46.300000 -120.800000 3.853238
46.600000 -120.800000 3.871711
46.900000 -120.800000 3.892537
47.200000 -120.800000 3.911101
47.500000 -120.800000 3.923792
47.800000 -120.800000 3.926636
48.100000 -120.800000 3.919337
48.400000 -120.800000 3.907614
48.700000 -120.800000 3.896036
49.000000 -120.800000 3.889868
34.300000 -120.500000 3.889897
34.900000 -120.500000 3.900116
35.200000 -120.500000 3.901676
35.500000 -120.500000 3.899033
35.800000 -120.500000 3.898854
36.100000 -120.500000 3.898103
36.400000 -120.500000 3.890685
36.700000 -120.500000 3.879721
37.000000 -120.500000 3.866234
37.300000 -120.500000 3.856721
37.600000 -120.500000 3.847955
37.900000 -120.500000 3.847850
38.200000 -120.500000 3.850908
38.500000 -120.500000 3.853732
38.800000 -120.500000 3.852267
39.100000 -120.500000 3.844605
39.400000 -120.500000 3.831598
39.700000 -120.500000 3.813556
40.000000 -120.500000 3.796166
40.300000 -120.500000 3.783800
40.600000 -120.500000 3.778648
40.900000 -120.500000 3.774809
41.200000 -120.500000 3.770005
41.500000 -120.500000 3.763936
41.800000 -120.500000 3.760220
42.100000 -120.500000 3.757583
42.400000 -120.500000 3.757375
42.700000 -120.500000 3.758444
43.000000 -120.500000 3.760235
43.300000 -120.500000 3.765343
43.600000 -120.500000 3.774836
43.900000 -120.500000 3.789733
44.200000 -120.500000 3.806990
44.500000 -120.500000 3.825557
44.800000 -120.500000 3.837150
45.100000 -120.500000 3.842524
45.400000 -120.500000 3.841894
45.700000 -120.500000 3.842904
46.000000 -120.500000 3.849674
46.300000 -120.500000 3.862738
46.600000 -120.500000 3.878213
46.900000 -120.500000 3.894605
47.200000 -120.500000 3.910456
47.500000 -120.500000 3.923545
47.800000 -120.500000 3.928489
48.100000 -120.500000 3.922533
48.400000 -120.500000 3.909624
48.700000 -120.500000 3.897407
49.000000 -120.500000 3.889090
34.600000 -120.200000 3.897869
34.900000 -120.200000 3.906118
35.200000 -120.200000 3.903678
35.500000 -120.200000 3.906716
35.800000 -120.200000 3.908921
36.100000 -120.200000 3.908718
36.400000 -120.200000 3.901999
36.700000 -120.200000 3.887506
37.000000 -120.200000 3.870301
37.300000 -120.200000 3.853003
37.600000 -120.200000 3.839448
37.900000 -120.200000 3.834362
38.200000 -120.200000 3.834459
38.500000 -120.200000 3.835885
38.800000 -120.200000 3.832555
39.100000 -120.200000 3.824835
39.400000 -120.200000 3.812201
39.700000 -120.200000 3.797855
40.000000 -120.200000 3.785192
40.300000 -120.200000 3.775905
40.600000 -120.200000 3.773846
40.900000 -120.200000 3.771284
41.200000 -120.200000 3.769499
41.500000 -120.200000 3.764350
41.800000 -120.200000 3.761137
42.100000 -120.200000 3.758522
42.400000 -120.200000 3.758665
42.700000 -120.200000 3.760983
43.000000 -120.200000 3.764439
43.300000 -120.200000 3.770806
43.600000 -120.200000 3.780317
43.900000 -120.200000 3.794501
44.200000 -120.200000 3.811412
44.500000 -120.200000 3.829942
44.800000 -120.200000 3.842986
45.100000 -120.200000 3.850713
45.400000 -120.200000 3.852969
45.700000 -120.200000 3.856164
46.000000 -120.200000 3.862679
46.300000 -120.200000 3.874568
46.600000 -120.200000 3.887528
46.900000 -120.200000 3.901632
47.200000 -120.200000 3.914957
47.500000 -120.200000 3.927295
47.800000 -120.200000 3.931963
48.100000 -120.200000 3.926622
48.400000 -120.200000 3.912384
48.700000 -120.200000 3.899490
33.700000 -119.900000 3.917770
34.000000 -119.900000 3.915134
34.300000 -119.900000 3.905091
34.600000 -119.900000 3.904346
34.900000 -119.900000 3.904449
35.200000 -119.900000 3.905113
35.500000 -119.900000 3.908135
35.800000 -119.900000 3.912220
36.100000 -119.900000 3.912880
36.400000 -119.900000 3.905460
36.700000 -119.900000 3.889103
37.000000 -119.900000 3.867902
37.300000 -119.900000 3.845246
37.600000 -119.900000 3.827377
37.900000 -119.900000 3.817476
38.200000 -119.900000 3.816571
38.500000 -119.900000 3.815706
38.800000 -119.900000 3.812430
39.100000 -119.900000 3.805571
39.400000 -119.900000 3.795927
39.700000 -119.900000 3.786425
40.000000 -119.900000 3.779300
40.300000 -119.900000 3.774242
40.600000 -119.900000 3.772987
40.900000 -119.900000 3.771792
41.200000 -119.900000 3.770943
41.500000 -119.900000 3.768019
41.800000 -119.900000 3.764924
42.100000 -119.900000 3.762649
42.400000 -119.900000 3.762720
42.700000 -119.900000 3.765019
43.000000 -119.900000 3.768494
43.300000 -119.900000 3.775321
43.600000 -119.900000 3.784800
43.900000 -119.900000 3.799073
44.200000 -119.900000 3.815951
44.500000 -119.900000 3.835119
44.800000 -119.900000 3.849811
45.100000 -119.900000 3.859621
45.400000 -119.900000 3.864565
45.700000 -119.900000 3.869830
46.000000 -119.900000 3.876856
46.300000 -119.900000 3.887237
46.600000 -119.900000 3.898349
46.900000 -119.900000 3.911294
47.200000 -119.900000 3.923502
47.500000 -119.900000 3.934178
47.800000 -119.900000 3.937610
48.100000 -119.900000 3.931700
48.400000 -119.900000 3.916167
48.700000 -119.900000 3.903709
33.100000 -119.600000 3.905746
33.400000 -119.600000 3.911533
33.700000 -119.600000 3.914702
34.000000 -119.600000 3.913438
34.300000 -119.600000 3.907486
34.600000 -119.600000 3.903246
34.900000 -119.600000 3.900590
35.200000 -119.600000 3.901075
35.500000 -119.600000 3.903452
35.800000 -119.600000 3.905589
36.100000 -119.600000 3.906994
36.400000 -119.600000 3.898278
36.700000 -119.600000 3.881260
37.000000 -119.600000 3.859137
37.300000 -119.600000 3.835238
37.600000 -119.600000 3.813718
37.900000 -119.600000 3.802435
38.200000 -119.600000 3.799886
38.500000 -119.600000 3.798518
38.800000 -119.600000 3.796211
39.100000 -119.600000 3.791470
39.400000 -119.600000 3.785511
39.700000 -119.600000 3.780022
40.000000 -119.600000 3.776967
40.300000 -119.600000 3.775790
40.600000 -119.600000 3.775185
40.900000 -119.600000 3.775578
41.200000 -119.600000 3.775125
41.500000 -119.600000 3.774444
41.800000 -119.600000 3.770867
42.100000 -119.600000 3.767688
42.400000 -119.600000 3.767181
42.700000 -119.600000 3.769203
43.000000 -119.600000 3.773277
43.300000 -119.600000 3.780173
43.600000 -119.600000 3.790063
43.900000 -119.600000 3.804198
44.200000 -119.600000 3.821372
44.500000 -119.600000 3.840544
44.800000 -119.600000 3.855954
45.100000 -119.600000 3.867493
45.400000 -119.600000 3.875092
45.700000 -119.600000 3.882723
46.000000 -119.600000 3.891112
46.300000 -119.600000 3.900956
46.600000 -119.600000 3.910641
46.900000 -119.600000 3.921569
47.200000 -119.600000 3.932066
47.500000 -119.600000 3.940558
47.800000 -119.600000 3.942540
48.100000 -119.600000 3.935660
48.400000 -119.600000 3.920085
48.700000 -119.600000 3.910114
33.100000 -119.300000 3.898751
33.400000 -119.300000 3.904348
33.700000 -119.300000 3.910963
34.000000 -119.300000 3.910330
34.300000 -119.300000 3.905070
34.600000 -119.300000 3.899015
34.900000 -119.300000 3.895176
35.200000 -119.300000 3.892107
35.500000 -119.300000 3.890027
35.800000 -119.300000 3.888885
36.100000 -119.300000 3.889544
36.400000 -119.300000 3.880901
36.700000 -119.300000 3.866265
37.000000 -119.300000 3.845983
37.300000 -119.300000 3.825307
37.600000 -119.300000 3.802611
37.900000 -119.300000 3.789910
38.200000 -119.300000 3.785501
38.500000 -119.300000 3.785688
38.800000 -119.300000 3.785112
39.100000 -119.300000 3.783471
39.400000 -119.300000 3.780403
39.700000 -119.300000 3.777576
40.000000 -119.300000 3.777869
40.300000 -119.300000 3.779169
40.600000 -119.300000 3.779399
40.900000 -119.300000 3.780704
41.200000 -119.300000 3.780944
41.500000 -119.300000 3.779919
41.800000 -119.300000 3.776069
42.100000 -119.300000 3.771523
42.400000 -119.300000 3.770740
42.700000 -119.300000 3.773162
43.000000 -119.300000 3.777615
43.300000 -119.300000 3.784415
43.600000 -119.300000 3.794387
43.900000 -119.300000 3.808892
44.200000 -119.300000 3.826228
44.500000 -119.300000 3.844990
44.800000 -119.300000 3.860628
45.100000 -119.300000 3.873212
45.400000 -119.300000 3.882940
45.700000 -119.300000 3.893021
46.000000 -119.300000 3.903088
46.300000 -119.300000 3.914531
46.600000 -119.300000 3.923669
46.900000 -119.300000 3.933155
47.200000 -119.300000 3.940266
47.500000 -119.300000 3.945501
47.800000 -119.300000 3.945470
48.100000 -119.300000 3.937847
48.400000 -119.300000 3.923466
48.700000 -119.300000 3.914110
33.100000 -119.000000 3.887064
33.400000 -119.000000 3.896304
33.700000 -119.000000 3.903894
34.000000 -119.000000 3.906265
34.300000 -119.000000 3.900864
34.600000 -119.000000 3.893456
34.900000 -119.000000 3.885618
35.200000 -119.000000 3.876782
35.500000 -119.000000 3.868505
35.800000 -119.000000 3.865989
36.100000 -119.000000 3.865006
36.400000 -119.000000 3.860277
36.700000 -119.000000 3.849337
37.000000 -119.000000 3.835059
37.300000 -119.000000 3.815770
37.600000 -119.000000 3.797174
37.900000 -119.000000 3.783377
38.200000 -119.000000 3.779365
38.500000 -119.000000 3.779850
38.800000 -119.000000 3.781716
39.100000 -119.000000 3.781540
39.400000 -119.000000 3.780098
39.700000 -119.000000 3.779163
40.000000 -119.000000 3.780739
40.300000 -119.000000 3.783650
40.600000 -119.000000 3.785208
40.900000 -119.000000 3.785356
41.200000 -119.000000 3.787376
41.500000 -119.000000 3.784214
41.800000 -119.000000 3.780582
42.100000 -119.000000 3.775429
42.400000 -119.000000 3.773785
42.700000 -119.000000 3.775473
43.000000 -119.000000 3.780245
43.300000 -119.000000 3.787840
43.600000 -119.000000 3.798329
43.900000 -119.000000 3.813039
44.200000 -119.000000 3.830072
44.500000 -119.000000 3.848634
44.800000 -119.000000 3.864590
45.100000 -119.000000 3.878397
45.400000 -119.000000 3.890428
45.700000 -119.000000 3.902874
46.000000 -119.000000 3.913949
46.300000 -119.000000 3.925396
46.600000 -119.000000 3.934032
46.900000 -119.000000 3.942919
47.200000 -119.000000 3.948192
47.500000 -119.000000 3.950605
47.800000 -119.000000 3.948018
48.100000 -119.000000 3.940015
48.400000 -119.000000 3.926950
48.700000 -119.000000 3.919156
32.800000 -118.700000 3.863975
33.100000 -118.700000 3.876365
33.400000 -118.700000 3.887570
33.700000 -118.700000 3.898251
34.000000 -118.700000 3.901419
34.300000 -118.700000 3.896540
34.600000 -118.700000 3.885435
34.900000 -118.700000 3.871583
35.200000 -118.700000 3.856726
35.500000 -118.700000 3.843553
35.800000 -118.700000 3.840414
36.100000 -118.700000 3.841543
36.400000 -118.700000 3.841281
36.700000 -118.700000 3.835697
37.000000 -118.700000 3.827231
37.300000 -118.700000 3.811814
37.600000 -118.700000 3.796697
37.900000 -118.700000 3.784826
38.200000 -118.700000 3.781385
38.500000 -118.700000 3.781484
38.800000 -118.700000 3.783893
39.100000 -118.700000 3.784146
39.400000 -118.700000 3.782807
39.700000 -118.700000 3.782480
40.000000 -118.700000 3.784645
40.300000 -118.700000 3.788465
40.600000 -118.700000 3.790935
40.900000 -118.700000 3.791231
41.200000 -118.700000 3.791937
41.500000 -118.700000 3.788259
41.800000 -118.700000 3.784361
42.100000 -118.700000 3.779527
42.400000 -118.700000 3.777790
42.700000 -118.700000 3.778936
43.000000 -118.700000 3.783102
43.300000 -118.700000 3.790828
43.600000 -118.700000 3.801997
43.900000 -118.700000 3.817208
44.200000 -118.700000 3.834416
44.500000 -118.700000 3.852898
44.800000 -118.700000 3.869372
45.100000 -118.700000 3.884750
45.400000 -118.700000 3.898461
45.700000 -118.700000 3.912576
46.000000 -118.700000 3.924565
46.300000 -118.700000 3.936264
46.600000 -118.700000 3.944104
46.900000 -118.700000 3.951513
47.200000 -118.700000 3.955350
47.500000 -118.700000 3.956018
47.800000 -118.700000 3.952667
48.100000 -118.700000 3.944747
48.400000 -118.700000 3.933219
48.700000 -118.700000 3.926095
32.800000 -118.400000 3.864929
33.100000 -118.400000 3.871803
33.400000 -118.400000 3.884445
33.700000 -118.400000 3.894484
34.000000 -118.400000 3.897666
34.300000 -118.400000 3.890757
34.600000 -118.400000 3.875917
34.900000 -118.400000 3.856864
35.200000 -118.400000 3.836691
35.500000 -118.400000 3.822222
35.800000 -118.400000 3.818489
36.100000 -118.400000 3.822343
36.400000 -118.400000 3.826124
36.700000 -118.400000 3.826343
37.000000 -118.400000 3.821759
37.300000 -118.400000 3.811553
37.600000 -118.400000 3.798615
37.900000 -118.400000 3.790596
38.200000 -118.400000 3.788867
38.500000 -118.400000 3.789337
38.800000 -118.400000 3.790471
39.100000 -118.400000 3.789250
39.400000 -118.400000 3.787741
39.700000 -118.400000 3.787118
40.000000 -118.400000 3.789737
40.300000 -118.400000 3.793272
40.600000 -118.400000 3.796693
40.900000 -118.400000 3.796782
41.200000 -118.400000 3.794807
41.500000 -118.400000 3.790657
41.800000 -118.400000 3.786576
42.100000 -118.400000 3.782538
42.400000 -118.400000 3.781021
42.700000 -118.400000 3.782585
43.000000 -118.400000 3.786819
43.300000 -118.400000 3.795072
43.600000 -118.400000 3.806945
43.900000 -118.400000 3.823161
44.200000 -118.400000 3.841532
44.500000 -118.400000 3.860665
44.800000 -118.400000 3.877702
45.100000 -118.400000 3.893765
45.400000 -118.400000 3.908290
45.700000 -118.400000 3.923368
46.000000 -118.400000 3.936017
46.300000 -118.400000 3.947649
46.600000 -118.400000 3.954372
46.900000 -118.400000 3.959555
47.200000 -118.400000 3.961500
47.500000 -118.400000 3.961118
47.800000 -118.400000 3.957446
48.100000 -118.400000 3.950067
48.400000 -118.400000 3.939167
48.700000 -118.400000 3.932890
32.800000 -118.100000 3.873036
33.100000 -118.100000 3.878052
33.400000 -118.100000 3.888312
33.700000 -118.100000 3.895083
34.000000 -118.100000 3.894627
34.300000 -118.100000 3.885173
34.600000 -118.100000 3.867197
34.900000 -118.100000 3.844823
35.200000 -118.100000 3.822327
35.500000 -118.100000 3.807968
35.800000 -118.100000 3.803947
36.100000 -118.100000 3.809379
36.400000 -118.100000 3.817612
36.700000 -118.100000 3.821651
37.000000 -118.100000 3.819036
37.300000 -118.100000 3.812045
37.600000 -118.100000 3.802854
37.900000 -118.100000 3.799449
38.200000 -118.100000 3.799933
38.500000 -118.100000 3.799870
38.800000 -118.100000 3.797590
39.100000 -118.100000 3.795305
39.400000 -118.100000 3.792321
39.700000 -118.100000 3.792703
40.000000 -118.100000 3.794262
40.300000 -118.100000 3.798150
40.600000 -118.100000 3.800900
40.900000 -118.100000 3.799918
41.200000 -118.100000 3.795779
41.500000 -118.100000 3.790510
41.800000 -118.100000 3.786912
42.100000 -118.100000 3.783853
42.400000 -118.100000 3.782960
42.700000 -118.100000 3.785416
43.000000 -118.100000 3.790864
43.300000 -118.100000 3.800774
43.600000 -118.100000 3.813548
43.900000 -118.100000 3.831385
44.200000 -118.100000 3.851177
44.500000 -118.100000 3.871748
44.800000 -118.100000 3.889900
45.100000 -118.100000 3.906426
45.400000 -118.100000 3.920833
45.700000 -118.100000 3.935439
46.000000 -118.100000 3.947401
46.300000 -118.100000 3.958219
46.600000 -118.100000 3.963635
46.900000 -118.100000 3.967282
47.200000 -118.100000 3.967658
47.500000 -118.100000 3.966474
47.800000 -118.100000 3.962416
48.100000 -118.100000 3.955465
48.400000 -118.100000 3.944517
48.700000 -118.100000 3.938513
32.800000 -117.800000 3.884344
33.100000 -117.800000 3.891211
33.400000 -117.800000 3.897029
33.700000 -117.800000 3.897022
34.000000 -117.800000 3.891922
34.300000 -117.800000 3.879992
34.600000 -117.800000 3.861012
34.900000 -117.800000 3.838637
35.200000 -117.800000 3.816786
35.500000 -117.800000 3.803262
35.800000 -117.800000 3.800224
36.100000 -117.800000 3.804697
36.400000 -117.800000 3.813347
36.700000 -117.800000 3.819411
37.000000 -117.800000 3.818015
37.300000 -117.800000 3.811713
37.600000 -117.800000 3.807051
37.900000 -117.800000 3.807074
38.200000 -117.800000 3.808647
38.500000 -117.800000 3.808000
38.800000 -117.800000 3.804209
39.100000 -117.800000 3.800050
39.400000 -117.800000 3.796860
39.700000 -117.800000 3.797067
40.000000 -117.800000 3.798769
40.300000 -117.800000 3.802288
40.600000 -117.800000 3.802733
40.900000 -117.800000 3.800546
41.200000 -117.800000 3.794870
41.500000 -117.800000 3.787886
41.800000 -117.800000 3.785190
42.100000 -117.800000 3.784086
42.400000 -117.800000 3.784880
42.700000 -117.800000 3.788309
43.000000 -117.800000 3.795014
43.300000 -117.800000 3.806564
43.600000 -117.800000 3.821022
43.900000 -117.800000 3.840588
44.200000 -117.800000 3.862635
44.500000 -117.800000 3.885251
44.800000 -117.800000 3.905441
45.100000 -117.800000 3.922257
45.400000 -117.800000 3.935689
45.700000 -117.800000 3.947966
46.000000 -117.800000 3.957741
46.300000 -117.800000 3.966408
46.600000 -117.800000 3.970160
46.900000 -117.800000 3.972837
47.200000 -117.800000 3.973300
47.500000 -117.800000 3.971868
47.800000 -117.800000 3.966358
48.100000 -117.800000 3.958802
48.400000 -117.800000 3.947311
48.700000 -117.800000 3.942096
32.800000 -117.500000 3.895016
33.100000 -117.500000 3.902537
33.400000 -117.500000 3.903976
33.700000 -117.500000 3.897957
34.000000 -117.500000 3.887627
34.300000 -117.500000 3.875057
34.600000 -117.500000 3.857532
34.900000 -117.500000 3.837214
35.200000 -117.500000 3.819075
35.500000 -117.500000 3.807911
35.800000 -117.500000 3.804132
36.100000 -117.500000 3.807216
36.400000 -117.500000 3.813312
36.700000 -117.500000 3.817880
37.000000 -117.500000 3.818149
37.300000 -117.500000 3.814039
37.600000 -117.500000 3.811393
37.900000 -117.500000 3.812975
38.200000 -117.500000 3.814125
38.500000 -117.500000 3.813057
38.800000 -117.500000 3.808436
39.100000 -117.500000 3.803116
39.400000 -117.500000 3.800436
39.700000 -117.500000 3.800478
40.000000 -117.500000 3.802509
40.300000 -117.500000 3.804838
40.600000 -117.500000 3.802908
40.900000 -117.500000 3.798802
41.200000 -117.500000 3.791736
41.500000 -117.500000 3.783885
41.800000 -117.500000 3.782338
42.100000 -117.500000 3.783287
42.400000 -117.500000 3.786405
42.700000 -117.500000 3.791448
43.000000 -117.500000 3.799068
43.300000 -117.500000 3.811700
43.600000 -117.500000 3.828132
43.900000 -117.500000 3.850359
44.200000 -117.500000 3.875511
44.500000 -117.500000 3.900760
44.800000 -117.500000 3.922830
45.100000 -117.500000 3.939129
45.400000 -117.500000 3.950211
45.700000 -117.500000 3.959050
46.000000 -117.500000 3.966420
46.300000 -117.500000 3.973272
46.600000 -117.500000 3.976094
46.900000 -117.500000 3.978283
47.200000 -117.500000 3.978319
47.500000 -117.500000 3.975916
47.800000 -117.500000 3.968437
48.100000 -117.500000 3.959499
48.400000 -117.500000 3.947822
48.700000 -117.500000 3.943000
32.800000 -117.200000 3.892719
33.100000 -117.200000 3.902897
33.400000 -117.200000 3.902100
33.700000 -117.200000 3.893453
34.000000 -117.200000 3.881351
34.300000 -117.200000 3.869713
34.600000 -117.200000 3.854991
34.900000 -117.200000 3.838793
35.200000 -117.200000 3.824275
35.500000 -117.200000 3.815533
35.800000 -117.200000 3.811873
36.100000 -117.200000 3.812465
36.400000 -117.200000 3.814973
36.700000 -117.200000 3.817189
37.000000 -117.200000 3.818049
37.300000 -117.200000 3.815679
37.600000 -117.200000 3.815048
37.900000 -117.200000 3.815606
38.200000 -117.200000 3.816875
38.500000 -117.200000 3.815506
38.800000 -117.200000 3.810652
39.100000 -117.200000 3.805577
39.400000 -117.200000 3.804339
39.700000 -117.200000 3.804797
40.000000 -117.200000 3.806960
40.300000 -117.200000 3.806099
40.600000 -117.200000 3.802534
40.900000 -117.200000 3.796819
41.200000 -117.200000 3.788411
41.500000 -117.200000 3.781500
41.800000 -117.200000 3.780534
42.100000 -117.200000 3.781862
42.400000 -117.200000 3.785344
42.700000 -117.200000 3.791078
43.000000 -117.200000 3.799452
43.300000 -117.200000 3.813806
43.600000 -117.200000 3.832982
43.900000 -117.200000 3.858644
44.200000 -117.200000 3.886960
44.500000 -117.200000 3.914597
44.800000 -117.200000 3.937587
45.100000 -117.200000 3.952625
45.400000 -117.200000 3.961619
45.700000 -117.200000 3.967692
46.000000 -117.200000 3.973225
46.300000 -117.200000 3.978029
46.600000 -117.200000 3.980015
46.900000 -117.200000 3.982205
47.200000 -117.200000 3.982344
47.500000 -117.200000 3.978588
47.800000 -117.200000 3.969151
48.100000 -117.200000 3.958117
48.400000 -117.200000 3.946330
48.700000 -117.200000 3.941452
32.500000 -116.900000 3.863286
32.800000 -116.900000 3.877830
33.100000 -116.900000 3.889374
33.400000 -116.900000 3.888925
33.700000 -116.900000 3.881961
34.000000 -116.900000 3.871545
34.300000 -116.900000 3.863241
34.600000 -116.900000 3.852624
34.900000 -116.900000 3.840094
35.200000 -116.900000 3.829211
35.500000 -116.900000 3.821731
35.800000 -116.900000 3.818023
36.100000 -116.900000 3.816235
36.400000 -116.900000 3.815159
36.700000 -116.900000 3.815708
37.000000 -116.900000 3.815651
37.300000 -116.900000 3.815772
37.600000 -116.900000 3.814943
37.900000 -116.900000 3.815227
38.200000 -116.900000 3.817228
38.500000 -116.900000 3.816340
38.800000 -116.900000 3.813118
39.100000 -116.900000 3.810085
39.400000 -116.900000 3.810013
39.700000 -116.900000 3.811444
40.000000 -116.900000 3.812762
40.300000 -116.900000 3.809915
40.600000 -116.900000 3.805523
40.900000 -116.900000 3.796867
41.200000 -116.900000 3.788845
41.500000 -116.900000 3.780734
41.800000 -116.900000 3.779002
42.100000 -116.900000 3.779241
42.400000 -116.900000 3.781923
42.700000 -116.900000 3.787092
43.000000 -116.900000 3.795941
43.300000 -116.900000 3.812348
43.600000 -116.900000 3.835063
43.900000 -116.900000 3.864061
44.200000 -116.900000 3.894640
44.500000 -116.900000 3.923429
44.800000 -116.900000 3.946354
45.100000 -116.900000 3.960339
45.400000 -116.900000 3.967205
45.700000 -116.900000 3.971032
46.000000 -116.900000 3.974757
46.300000 -116.900000 3.978559
46.600000 -116.900000 3.981237
46.900000 -116.900000 3.984859
47.200000 -116.900000 3.985475
47.500000 -116.900000 3.981070
47.800000 -116.900000 3.970167
48.100000 -116.900000 3.957886
48.400000 -116.900000 3.945715
48.700000 -116.900000 3.940427
32.500000 -116.600000 3.846028
32.800000 -116.600000 3.858068
33.100000 -116.600000 3.866554
33.400000 -116.600000 3.868492
33.700000 -116.600000 3.864695
34.000000 -116.600000 3.859693
34.300000 -116.600000 3.854788
34.600000 -116.600000 3.848340
34.900000 -116.600000 3.839215
35.200000 -116.600000 3.830457
35.500000 -116.600000 3.823622
35.800000 -116.600000 3.819435
36.100000 -116.600000 3.816067
36.400000 -116.600000 3.813121
36.700000 -116.600000 3.812078
37.000000 -116.600000 3.812875
37.300000 -116.600000 3.814058
37.600000 -116.600000 3.813225
37.900000 -116.600000 3.813818
38.200000 -116.600000 3.815961
38.500000 -116.600000 3.816486
38.800000 -116.600000 3.815262
39.100000 -116.600000 3.814777
39.400000 -116.600000 3.815735
39.700000 -116.600000 3.816895
40.000000 -116.600000 3.817659
40.300000 -116.600000 3.815613
40.600000 -116.600000 3.809621
40.900000 -116.600000 3.801426
41.200000 -116.600000 3.791833
41.500000 -116.600000 3.781943
41.800000 -116.600000 3.778255
42.100000 -116.600000 3.777056
42.400000 -116.600000 3.777909
42.700000 -116.600000 3.781543
43.000000 -116.600000 3.790290
43.300000 -116.600000 3.808466
43.600000 -116.600000 3.834688
43.900000 -116.600000 3.865869
44.200000 -116.600000 3.897467
44.500000 -116.600000 3.925970
44.800000 -116.600000 3.947483
45.100000 -116.600000 3.960201
45.400000 -116.600000 3.965388
45.700000 -116.600000 3.968327
46.000000 -116.600000 3.970959
46.300000 -116.600000 3.974850
46.600000 -116.600000 3.979872
46.900000 -116.600000 3.986892
47.200000 -116.600000 3.989165
47.500000 -116.600000 3.984195
47.800000 -116.600000 3.971569
48.100000 -116.600000 3.958309
48.400000 -116.600000 3.946223
48.700000 -116.600000 3.940993
32.500000 -116.300000 3.830915
32.800000 -116.300000 3.836137
33.100000 -116.300000 3.841671
33.400000 -116.300000 3.846413
33.700000 -116.300000 3.847569
34.000000 -116.300000 3.847988
34.300000 -116.300000 3.845999
34.600000 -116.300000 3.841795
34.900000 -116.300000 3.834821
35.200000 -116.300000 3.827420
35.500000 -116.300000 3.821437
35.800000 -116.300000 3.816772
36.100000 -116.300000 3.813252
36.400000 -116.300000 3.810272
36.700000 -116.300000 3.809763
37.000000 -116.300000 3.810166
37.300000 -116.300000 3.812376
37.600000 -116.300000 3.811201
37.900000 -116.300000 3.812885
38.200000 -116.300000 3.814802
38.500000 -116.300000 3.816766
38.800000 -116.300000 3.817884
39.100000 -116.300000 3.819123
39.400000 -116.300000 3.820871
39.700000 -116.300000 3.821402
40.000000 -116.300000 3.822206
40.300000 -116.300000 3.820104
40.600000 -116.300000 3.815301
40.900000 -116.300000 3.806149
41.200000 -116.300000 3.796778
41.500000 -116.300000 3.785164
41.800000 -116.300000 3.778851
42.100000 -116.300000 3.774972
42.400000 -116.300000 3.772698
42.700000 -116.300000 3.774630
43.000000 -116.300000 3.783324
43.300000 -116.300000 3.803124
43.600000 -116.300000 3.832157
43.900000 -116.300000 3.865041
44.200000 -116.300000 3.896239
44.500000 -116.300000 3.923356
44.800000 -116.300000 3.941802
45.100000 -116.300000 3.952888
45.400000 -116.300000 3.957387
45.700000 -116.300000 3.960709
46.000000 -116.300000 3.964196
46.300000 -116.300000 3.968965
46.600000 -116.300000 3.977032
46.900000 -116.300000 3.986315
47.200000 -116.300000 3.990349
47.500000 -116.300000 3.986085
47.800000 -116.300000 3.975164
48.100000 -116.300000 3.962770
48.400000 -116.300000 3.952091
48.700000 -116.300000 3.946742
32.500000 -116.000000 3.816440
32.800000 -116.000000 3.818915
33.100000 -116.000000 3.823208
33.400000 -116.000000 3.829843
33.700000 -116.000000 3.836533
34.000000 -116.000000 3.839616
34.300000 -116.000000 3.838845
34.600000 -116.000000 3.834534
34.900000 -116.000000 3.828381
35.200000 -116.000000 3.821528
35.500000 -116.000000 3.817093
35.800000 -116.000000 3.812913
36.100000 -116.000000 3.809966
36.400000 -116.000000 3.808695
36.700000 -116.000000 3.808429
37.000000 -116.000000 3.809822
37.300000 -116.000000 3.810952
37.600000 -116.000000 3.811318
37.900000 -116.000000 3.813085
38.200000 -116.000000 3.815739
38.500000 -116.000000 3.818268
38.800000 -116.000000 3.820304
39.100000 -116.000000 3.822077
39.400000 -116.000000 3.822937
39.700000 -116.000000 3.822800
40.000000 -116.000000 3.822542
40.300000 -116.000000 3.821313
40.600000 -116.000000 3.816100
40.900000 -116.000000 3.808884
41.200000 -116.000000 3.799043
41.500000 -116.000000 3.788909
41.800000 -116.000000 3.780553
42.100000 -116.000000 3.772833
42.400000 -116.000000 3.766564
42.700000 -116.000000 3.766499
43.000000 -116.000000 3.775309
43.300000 -116.000000 3.796900
43.600000 -116.000000 3.828007
43.900000 -116.000000 3.861725
44.200000 -116.000000 3.891492
44.500000 -116.000000 3.916229
44.800000 -116.000000 3.932322
45.100000 -116.000000 3.942695
45.400000 -116.000000 3.947267
45.700000 -116.000000 3.951331
46.000000 -116.000000 3.955701
46.300000 -116.000000 3.962083
46.600000 -116.000000 3.972420
46.900000 -116.000000 3.983771
47.200000 -116.000000 3.990198
47.500000 -116.000000 3.988378
47.800000 -116.000000 3.980585
48.100000 -116.000000 3.970377
48.400000 -116.000000 3.961381
48.700000 -116.000000 3.956498
32.500000 -115.700000 3.809631
32.800000 -115.700000 3.809062
33.100000 -115.700000 3.814220
33.400000 -115.700000 3.822855
33.700000 -115.700000 3.833369
34.000000 -115.700000 3.837333
34.300000 -115.700000 3.835858
34.600000 -115.700000 3.829830
34.900000 -115.700000 3.822859
35.200000 -115.700000 3.816298
35.500000 -115.700000 3.813086
35.800000 -115.700000 3.810246
36.100000 -115.700000 3.809199
36.400000 -115.700000 3.808127
36.700000 -115.700000 3.808698
37.000000 -115.700000 3.809561
37.300000 -115.700000 3.810625
37.600000 -115.700000 3.812524
37.900000 -115.700000 3.814884
38.200000 -115.700000 3.817084
38.500000 -115.700000 3.819730
38.800000 -115.700000 3.821848
39.100000 -115.700000 3.823618
39.400000 -115.700000 3.822564
39.700000 -115.700000 3.821081
40.000000 -115.700000 3.819631
40.300000 -115.700000 3.817173
40.600000 -115.700000 3.813005
40.900000 -115.700000 3.805899
41.200000 -115.700000 3.799274
41.500000 -115.700000 3.789626
41.800000 -115.700000 3.780601
42.100000 -115.700000 3.770226
42.400000 -115.700000 3.761168
42.700000 -115.700000 3.759388
43.000000 -115.700000 3.768358
43.300000 -115.700000 3.790718
43.600000 -115.700000 3.822874
43.900000 -115.700000 3.856118
44.200000 -115.700000 3.884379
44.500000 -115.700000 3.906923
44.800000 -115.700000 3.921977
45.100000 -115.700000 3.932330
45.400000 -115.700000 3.937307
45.700000 -115.700000 3.941569
46.000000 -115.700000 3.946342
46.300000 -115.700000 3.954237
46.600000 -115.700000 3.966508
46.900000 -115.700000 3.979741
47.200000 -115.700000 3.988081
47.500000 -115.700000 3.989707
47.800000 -115.700000 3.985257
48.100000 -115.700000 3.978535
48.400000 -115.700000 3.971768
48.700000 -115.700000 3.968387
32.500000 -115.400000 3.809710
32.800000 -115.400000 3.811055
33.100000 -115.400000 3.816392
33.400000 -115.400000 3.826286
33.700000 -115.400000 3.837918
34.000000 -115.400000 3.841081
34.300000 -115.400000 3.837752
34.600000 -115.400000 3.829327
34.900000 -115.400000 3.820241
35.200000 -115.400000 3.813835
35.500000 -115.400000 3.811587
35.800000 -115.400000 3.809410
36.100000 -115.400000 3.808303
36.400000 -115.400000 3.807305
36.700000 -115.400000 3.806698
37.000000 -115.400000 3.807770
37.300000 -115.400000 3.808931
37.600000 -115.400000 3.813230
37.900000 -115.400000 3.816117
38.200000 -115.400000 3.819294
38.500000 -115.400000 3.820387
38.800000 -115.400000 3.821944
39.100000 -115.400000 3.822059
39.400000 -115.400000 3.819542
39.700000 -115.400000 3.816506
40.000000 -115.400000 3.814017
40.300000 -115.400000 3.810703
40.600000 -115.400000 3.805064
40.900000 -115.400000 3.800473
41.200000 -115.400000 3.796908
41.500000 -115.400000 3.789047
41.800000 -115.400000 3.779871
42.100000 -115.400000 3.767709
42.400000 -115.400000 3.756792
42.700000 -115.400000 3.753609
43.000000 -115.400000 3.761885
43.300000 -115.400000 3.784271
43.600000 -115.400000 3.816573
43.900000 -115.400000 3.849790
44.200000 -115.400000 3.877035
44.500000 -115.400000 3.898045
44.800000 -115.400000 3.912197
45.100000 -115.400000 3.922801
45.400000 -115.400000 3.928718
45.700000 -115.400000 3.933117
46.000000 -115.400000 3.938364
46.300000 -115.400000 3.946554
46.600000 -115.400000 3.959906
46.900000 -115.400000 3.973582
47.200000 -115.400000 3.984344
47.500000 -115.400000 3.989456
47.800000 -115.400000 3.989132
48.100000 -115.400000 3.985447
48.400000 -115.400000 3.981078
48.700000 -115.400000 3.978855
32.500000 -115.100000 3.821038
32.800000 -115.100000 3.824172
33.100000 -115.100000 3.830584
33.400000 -115.100000 3.840322
33.700000 -115.100000 3.847431
34.000000 -115.100000 3.848011
34.300000 -115.100000 3.841950
34.600000 -115.100000 3.831426
34.900000 -115.100000 3.821204
35.200000 -115.100000 3.815039
35.500000 -115.100000 3.811974
35.800000 -115.100000 3.809328
36.100000 -115.100000 3.806421
36.400000 -115.100000 3.804169
36.700000 -115.100000 3.802697
37.000000 -115.100000 3.803072
37.300000 -115.100000 3.805460
37.600000 -115.100000 3.810995
37.900000 -115.100000 3.815779
38.200000 -115.100000 3.818569
38.500000 -115.100000 3.819014
38.800000 -115.100000 3.819105
39.100000 -115.100000 3.817045
39.400000 -115.100000 3.813824
39.700000 -115.100000 3.810826
40.000000 -115.100000 3.808230
40.300000 -115.100000 3.803361
40.600000 -115.100000 3.798495
40.900000 -115.100000 3.794731
41.200000 -115.100000 3.794370
41.500000 -115.100000 3.788249
41.800000 -115.100000 3.778902
42.100000 -115.100000 3.765243
42.400000 -115.100000 3.753139
42.700000 -115.100000 3.748625
43.000000 -115.100000 3.756134
43.300000 -115.100000 3.777634
43.600000 -115.100000 3.809003
43.900000 -115.100000 3.841591
44.200000 -115.100000 3.868582
44.500000 -115.100000 3.889880
44.800000 -115.100000 3.904753
45.100000 -115.100000 3.915887
45.400000 -115.100000 3.922417
45.700000 -115.100000 3.926929
46.000000 -115.100000 3.932827
46.300000 -115.100000 3.940830
46.600000 -115.100000 3.953234
46.900000 -115.100000 3.966092
47.200000 -115.100000 3.978712
47.500000 -115.100000 3.987033
47.800000 -115.100000 3.991006
48.100000 -115.100000 3.990891
48.400000 -115.100000 3.989954
48.700000 -115.100000 3.989339
32.500000 -114.800000 3.839927
32.800000 -114.800000 3.845722
33.100000 -114.800000 3.853765
33.400000 -114.800000 3.859618
33.700000 -114.800000 3.861219
34.000000 -114.800000 3.856151
34.300000 -114.800000 3.846297
34.600000 -114.800000 3.834580
34.900000 -114.800000 3.824581
35.200000 -114.800000 3.817979
35.500000 -114.800000 3.813454
35.800000 -114.800000 3.808637
36.100000 -114.800000 3.803973
36.400000 -114.800000 3.799496
36.700000 -114.800000 3.796613
37.000000 -114.800000 3.795979
37.300000 -114.800000 3.799165
37.600000 -114.800000 3.804591
37.900000 -114.800000 3.810540
38.200000 -114.800000 3.814041
38.500000 -114.800000 3.814064
38.800000 -114.800000 3.812758
39.100000 -114.800000 3.809010
39.400000 -114.800000 3.806068
39.700000 -114.800000 3.803127
40.000000 -114.800000 3.801778
40.300000 -114.800000 3.798042
40.600000 -114.800000 3.794110
40.900000 -114.800000 3.792558
41.200000 -114.800000 3.792717
41.500000 -114.800000 3.788461
41.800000 -114.800000 3.779475
42.100000 -114.800000 3.764634
42.400000 -114.800000 3.751066
42.700000 -114.800000 3.744858
43.000000 -114.800000 3.750969
43.300000 -114.800000 3.770709
43.600000 -114.800000 3.799701
43.900000 -114.800000 3.830879
44.200000 -114.800000 3.858425
44.500000 -114.800000 3.881415
44.800000 -114.800000 3.898689
45.100000 -114.800000 3.911380
45.400000 -114.800000 3.918446
45.700000 -114.800000 3.923291
46.000000 -114.800000 3.928680
46.300000 -114.800000 3.935844
46.600000 -114.800000 3.946648
46.900000 -114.800000 3.959477
47.200000 -114.800000 3.973394
47.500000 -114.800000 3.984100
47.800000 -114.800000 3.990119
48.100000 -114.800000 3.992726
48.400000 -114.800000 3.993952
48.700000 -114.800000 3.994722
32.500000 -114.500000 3.863266
32.800000 -114.500000 3.868725
33.100000 -114.500000 3.877131
33.400000 -114.500000 3.878519
33.700000 -114.500000 3.873154
34.000000 -114.500000 3.862666
34.300000 -114.500000 3.849668
34.600000 -114.500000 3.837555
34.900000 -114.500000 3.828361
35.200000 -114.500000 3.820863
35.500000 -114.500000 3.815316
35.800000 -114.500000 3.808543
36.100000 -114.500000 3.802221
36.400000 -114.500000 3.796712
36.700000 -114.500000 3.792645
37.000000 -114.500000 3.790499
37.300000 -114.500000 3.792103
37.600000 -114.500000 3.795452
37.900000 -114.500000 3.800600
38.200000 -114.500000 3.804149
38.500000 -114.500000 3.805823
38.800000 -114.500000 3.803576
39.100000 -114.500000 3.799873
39.400000 -114.500000 3.796280
39.700000 -114.500000 3.795070
40.000000 -114.500000 3.796036
40.300000 -114.500000 3.795247
40.600000 -114.500000 3.793896
40.900000 -114.500000 3.794227
41.200000 -114.500000 3.795507
41.500000 -114.500000 3.791608
41.800000 -114.500000 3.782731
42.100000 -114.500000 3.767124
42.400000 -114.500000 3.752471
42.700000 -114.500000 3.744007
43.000000 -114.500000 3.747011
43.300000 -114.500000 3.762051
43.600000 -114.500000 3.786876
43.900000 -114.500000 3.815877
44.200000 -114.500000 3.844951
44.500000 -114.500000 3.870798
44.800000 -114.500000 3.890796
45.100000 -114.500000 3.905106
45.400000 -114.500000 3.913702
45.700000 -114.500000 3.919630
46.000000 -114.500000 3.925036
46.300000 -114.500000 3.931094
46.600000 -114.500000 3.940749
46.900000 -114.500000 3.953602
47.200000 -114.500000 3.968528
47.500000 -114.500000 3.980854
47.800000 -114.500000 3.988503
48.100000 -114.500000 3.992858
48.400000 -114.500000 3.996043
48.700000 -114.500000 3.997686
32.500000 -114.200000 3.880142
32.800000 -114.200000 3.888280
33.100000 -114.200000 3.894744
33.400000 -114.200000 3.891349
33.700000 -114.200000 3.881945
34.000000 -114.200000 3.866609
34.300000 -114.200000 3.852247
34.600000 -114.200000 3.840129
34.900000 -114.200000 3.831172
35.200000 -114.200000 3.823646
35.500000 -114.200000 3.817214
35.800000 -114.200000 3.809052
36.100000 -114.200000 3.802941
36.400000 -114.200000 3.797705
36.700000 -114.200000 3.792956
37.000000 -114.200000 3.788817
37.300000 -114.200000 3.786389
37.600000 -114.200000 3.785428
37.900000 -114.200000 3.787181
38.200000 -114.200000 3.790668
38.500000 -114.200000 3.792553
38.800000 -114.200000 3.790829
39.100000 -114.200000 3.788341
39.400000 -114.200000 3.786454
39.700000 -114.200000 3.787568
40.000000 -114.200000 3.791211
40.300000 -114.200000 3.795097
40.600000 -114.200000 3.797695
40.900000 -114.200000 3.800725
41.200000 -114.200000 3.802758
41.500000 -114.200000 3.799701
41.800000 -114.200000 3.791154
42.100000 -114.200000 3.775113
42.400000 -114.200000 3.758228
42.700000 -114.200000 3.746178
43.000000 -114.200000 3.744075
43.300000 -114.200000 3.752920
43.600000 -114.200000 3.772264
43.900000 -114.200000 3.798549
44.200000 -114.200000 3.828450
44.500000 -114.200000 3.857194
44.800000 -114.200000 3.880344
45.100000 -114.200000 3.897358
45.400000 -114.200000 3.908178
45.700000 -114.200000 3.915541
46.000000 -114.200000 3.921110
46.300000 -114.200000 3.926800
46.600000 -114.200000 3.936154
46.900000 -114.200000 3.949604
47.200000 -114.200000 3.966380
47.500000 -114.200000 3.980508
47.800000 -114.200000 3.989732
48.100000 -114.200000 3.994778
48.400000 -114.200000 3.998719
48.700000 -114.200000 4.000732
32.500000 -113.900000 3.889867
32.800000 -113.900000 3.896674
33.100000 -113.900000 3.900064
33.400000 -113.900000 3.895747
33.700000 -113.900000 3.883244
34.000000 -113.900000 3.867768
34.300000 -113.900000 3.852755
34.600000 -113.900000 3.840681
34.900000 -113.900000 3.830992
35.200000 -113.900000 3.823837
35.500000 -113.900000 3.816275
35.800000 -113.900000 3.809529
36.100000 -113.900000 3.805631
36.400000 -113.900000 3.802408
36.700000 -113.900000 3.798243
37.000000 -113.900000 3.792175
37.300000 -113.900000 3.784778
37.600000 -113.900000 3.777808
37.900000 -113.900000 3.774741
38.200000 -113.900000 3.775238
38.500000 -113.900000 3.776078
38.800000 -113.900000 3.774760
39.100000 -113.900000 3.775366
39.400000 -113.900000 3.775961
39.700000 -113.900000 3.780780
40.000000 -113.900000 3.786811
40.300000 -113.900000 3.796943
40.600000 -113.900000 3.804775
40.900000 -113.900000 3.810576
41.200000 -113.900000 3.813636
41.500000 -113.900000 3.812692
41.800000 -113.900000 3.805041
42.100000 -113.900000 3.789106
42.400000 -113.900000 3.769795
42.700000 -113.900000 3.752958
43.000000 -113.900000 3.744355
43.300000 -113.900000 3.745294
43.600000 -113.900000 3.757151
43.900000 -113.900000 3.778430
44.200000 -113.900000 3.807499
44.500000 -113.900000 3.839156
44.800000 -113.900000 3.866635
45.100000 -113.900000 3.887713
45.400000 -113.900000 3.901629
45.700000 -113.900000 3.911144
46.000000 -113.900000 3.917090
46.300000 -113.900000 3.922903
46.600000 -113.900000 3.932271
46.900000 -113.900000 3.947653
47.200000 -113.900000 3.966466
47.500000 -113.900000 3.982835
47.800000 -113.900000 3.993463
48.100000 -113.900000 3.999388
48.400000 -113.900000 4.003726
48.700000 -113.900000 4.005888
32.500000 -113.600000 3.892580
32.800000 -113.600000 3.896515
33.100000 -113.600000 3.896430
33.400000 -113.600000 3.890719
33.700000 -113.600000 3.879359
34.000000 -113.600000 3.865536
34.300000 -113.600000 3.851253
34.600000 -113.600000 3.838611
34.900000 -113.600000 3.827889
35.200000 -113.600000 3.819845
35.500000 -113.600000 3.812089
35.800000 -113.600000 3.808409
36.100000 -113.600000 3.807881
36.400000 -113.600000 3.808825
36.700000 -113.600000 3.808143
37.000000 -113.600000 3.801888
37.300000 -113.600000 3.789756
37.600000 -113.600000 3.775975
37.900000 -113.600000 3.765562
38.200000 -113.600000 3.760472
38.500000 -113.600000 3.758656
38.800000 -113.600000 3.758459
39.100000 -113.600000 3.761477
39.400000 -113.600000 3.767101
39.700000 -113.600000 3.774252
40.000000 -113.600000 3.785683
40.300000 -113.600000 3.800678
40.600000 -113.600000 3.814294
40.900000 -113.600000 3.823416
41.200000 -113.600000 3.828738
41.500000 -113.600000 3.830437
41.800000 -113.600000 3.824503
42.100000 -113.600000 3.809037
42.400000 -113.600000 3.786944
42.700000 -113.600000 3.764500
43.000000 -113.600000 3.747811
43.300000 -113.600000 3.739956
43.600000 -113.600000 3.743443
43.900000 -113.600000 3.759123
44.200000 -113.600000 3.786168
44.500000 -113.600000 3.819533
44.800000 -113.600000 3.851299
45.100000 -113.600000 3.877210
45.400000 -113.600000 3.895255
45.700000 -113.600000 3.907008
46.000000 -113.600000 3.913428
46.300000 -113.600000 3.919303
46.600000 -113.600000 3.929120
46.900000 -113.600000 3.945990
47.200000 -113.600000 3.967025
47.500000 -113.600000 3.986501
47.800000 -113.600000 3.999374
48.100000 -113.600000 4.006746
48.400000 -113.600000 4.011377
48.700000 -113.600000 4.013993
32.500000 -113.300000 3.889343
32.800000 -113.300000 3.889340
33.100000 -113.300000 3.887576
33.400000 -113.300000 3.882027
33.700000 -113.300000 3.872184
34.000000 -113.300000 3.859132
34.300000 -113.300000 3.845999
34.600000 -113.300000 3.833011
34.900000 -113.300000 3.821381
35.200000 -113.300000 3.811574
35.500000 -113.300000 3.805255
35.800000 -113.300000 3.804080
36.100000 -113.300000 3.808124
36.400000 -113.300000 3.816285
36.700000 -113.300000 3.820356
37.000000 -113.300000 3.815652
37.300000 -113.300000 3.801047
37.600000 -113.300000 3.780419
37.900000 -113.300000 3.761877
38.200000 -113.300000 3.749960
38.500000 -113.300000 3.744288
38.800000 -113.300000 3.745025
39.100000 -113.300000 3.750689
39.400000 -113.300000 3.760699
39.700000 -113.300000 3.771108
40.000000 -113.300000 3.786737
40.300000 -113.300000 3.806185
40.600000 -113.300000 3.823646
40.900000 -113.300000 3.837323
41.200000 -113.300000 3.846147
41.500000 -113.300000 3.851739
41.800000 -113.300000 3.847203
42.100000 -113.300000 3.831384
42.400000 -113.300000 3.807028
42.700000 -113.300000 3.779923
43.000000 -113.300000 3.755630
43.300000 -113.300000 3.738440
43.600000 -113.300000 3.733456
43.900000 -113.300000 3.742893
44.200000 -113.300000 3.766467
44.500000 -113.300000 3.799600
44.800000 -113.300000 3.834520
45.100000 -113.300000 3.865338
45.400000 -113.300000 3.888074
45.700000 -113.300000 3.902818
46.000000 -113.300000 3.910369
46.300000 -113.300000 3.917174
46.600000 -113.300000 3.928180
46.900000 -113.300000 3.947053
47.200000 -113.300000 3.969960
47.500000 -113.300000 3.991846
47.800000 -113.300000 4.007332
48.100000 -113.300000 4.016302
48.400000 -113.300000 4.022232
48.700000 -113.300000 4.024800
31.900000 -113.000000 3.871122
32.200000 -113.000000 3.876491
32.500000 -113.000000 3.879711
32.800000 -113.000000 3.879581
33.100000 -113.000000 3.876741
33.400000 -113.000000 3.870484
33.700000 -113.000000 3.862185
34.000000 -113.000000 3.849603
34.300000 -113.000000 3.837317
34.600000 -113.000000 3.824690
34.900000 -113.000000 3.813328
35.200000 -113.000000 3.802795
35.500000 -113.000000 3.798113
35.800000 -113.000000 3.799576
36.100000 -113.000000 3.808583
36.400000 -113.000000 3.823105
36.700000 -113.000000 3.833082
37.000000 -113.000000 3.832000
37.300000 -113.000000 3.817071
37.600000 -113.000000 3.791761
37.900000 -113.000000 3.766884
38.200000 -113.000000 3.749180
38.500000 -113.000000 3.739796
38.800000 -113.000000 3.740514
39.100000 -113.000000 3.748056
39.400000 -113.000000 3.760224
39.700000 -113.000000 3.772248
40.000000 -113.000000 3.790551
40.300000 -113.000000 3.811013
40.600000 -113.000000 3.832997
40.900000 -113.000000 3.850278
41.200000 -113.000000 3.864889
41.500000 -113.000000 3.872959
41.800000 -113.000000 3.869412
42.100000 -113.000000 3.852540
42.400000 -113.000000 3.826282
42.700000 -113.000000 3.795255
43.000000 -113.000000 3.766238
43.300000 -113.000000 3.742512
43.600000 -113.000000 3.730213
43.900000 -113.000000 3.732742
44.200000 -113.000000 3.750917
44.500000 -113.000000 3.781788
44.800000 -113.000000 3.818191
45.100000 -113.000000 3.853148
45.400000 -113.000000 3.880128
45.700000 -113.000000 3.898321
46.000000 -113.000000 3.908437
46.300000 -113.000000 3.917273
46.600000 -113.000000 3.929918
46.900000 -113.000000 3.950404
47.200000 -113.000000 3.974780
47.500000 -113.000000 3.998773
47.800000 -113.000000 4.016207
48.100000 -113.000000 4.027146
48.400000 -113.000000 4.034105
48.700000 -113.000000 4.037079
31.900000 -112.700000 3.871122
32.200000 -112.700000 3.869281
32.500000 -112.700000 3.872402
