34.000000 -112.400000 3.526670
34.300000 -112.400000 3.482787
34.600000 -112.400000 3.448240
34.900000 -112.400000 3.432372
35.200000 -112.400000 3.432120
35.500000 -112.400000 3.441147
35.800000 -112.400000 3.450643
36.100000 -112.400000 3.461207
36.400000 -112.400000 3.468903
36.700000 -112.400000 3.460162
37.000000 -112.400000 3.425683
37.300000 -112.400000 3.393965
37.600000 -112.400000 3.356451
37.900000 -112.400000 3.335874
38.200000 -112.400000 3.334247
38.500000 -112.400000 3.323066
38.800000 -112.400000 3.334376
39.100000 -112.400000 3.345904
39.400000 -112.400000 3.364909
39.700000 -112.400000 3.379610
40.000000 -112.400000 3.391955
40.300000 -112.400000 3.413761
40.600000 -112.400000 3.432487
40.900000 -112.400000 3.444206
41.200000 -112.400000 3.454347
41.500000 -112.400000 3.454301
41.800000 -112.400000 3.444682
42.100000 -112.400000 3.428452
42.400000 -112.400000 3.415599
42.700000 -112.400000 3.394062
43.000000 -112.400000 3.379182
43.300000 -112.400000 3.365551
43.600000 -112.400000 3.353928
43.900000 -112.400000 3.346082
44.200000 -112.400000 3.351552
44.500000 -112.400000 3.371226
44.800000 -112.400000 3.403209
45.100000 -112.400000 3.441052
45.400000 -112.400000 3.466094
45.700000 -112.400000 3.485155
46.000000 -112.400000 3.485543
46.300000 -112.400000 3.483135
46.600000 -112.400000 3.490838
46.900000 -112.400000 3.504343
47.200000 -112.400000 3.518946
47.500000 -112.400000 3.538323
47.800000 -112.400000 3.555536
48.100000 -112.400000 3.574348
48.400000 -112.400000 3.589705
48.700000 -112.400000 3.602807
32.200000 -112.100000 3.622344
32.500000 -112.100000 3.629109
32.800000 -112.100000 3.631442
33.100000 -112.100000 3.625696
33.400000 -112.100000 3.601248
33.700000 -112.100000 3.561124
34.000000 -112.100000 3.514982
34.300000 -112.100000 3.478294
34.600000 -112.100000 3.446205
34.900000 -112.100000 3.434654
35.200000 -112.100000 3.430338
35.500000 -112.100000 3.435596
35.800000 -112.100000 3.445224
36.100000 -112.100000 3.458856
36.400000 -112.100000 3.463695
36.700000 -112.100000 3.458044
37.000000 -112.100000 3.432996
37.300000 -112.100000 3.411978
37.600000 -112.100000 3.378440
37.900000 -112.100000 3.355702
38.200000 -112.100000 3.347910
38.500000 -112.100000 3.332549
38.800000 -112.100000 3.334518
39.100000 -112.100000 3.340818
39.400000 -112.100000 3.355589
39.700000 -112.100000 3.368167
40.000000 -112.100000 3.381371
40.300000 -112.100000 3.395454
40.600000 -112.100000 3.412795
40.900000 -112.100000 3.425041
41.200000 -112.100000 3.438587
41.500000 -112.100000 3.437722
41.800000 -112.100000 3.434873
42.100000 -112.100000 3.425775
42.400000 -112.100000 3.411051
42.700000 -112.100000 3.389291
43.000000 -112.100000 3.375267
43.300000 -112.100000 3.358335
43.600000 -112.100000 3.344143
43.900000 -112.100000 3.334563
44.200000 -112.100000 3.337653
44.500000 -112.100000 3.360151
44.800000 -112.100000 3.393202
45.100000 -112.100000 3.429609
45.400000 -112.100000 3.457928
45.700000 -112.100000 3.469735
46.000000 -112.100000 3.471946
46.300000 -112.100000 3.482136
46.600000 -112.100000 3.490705
46.900000 -112.100000 3.511889
47.200000 -112.100000 3.536005
47.500000 -112.100000 3.556921
47.800000 -112.100000 3.576464
48.100000 -112.100000 3.588209
48.400000 -112.100000 3.606833
48.700000 -112.100000 3.621491
31.900000 -111.800000 3.604844
32.200000 -111.800000 3.608256
32.500000 -111.800000 3.613134
32.800000 -111.800000 3.612964
33.100000 -111.800000 3.608857
33.400000 -111.800000 3.584439
33.700000 -111.800000 3.548700
34.000000 -111.800000 3.508121
34.300000 -111.800000 3.478221
34.600000 -111.800000 3.455851
34.900000 -111.800000 3.442650
35.200000 -111.800000 3.438328
35.500000 -111.800000 3.437850
35.800000 -111.800000 3.440932
36.100000 -111.800000 3.451439
36.400000 -111.800000 3.459862
36.700000 -111.800000 3.459917
37.000000 -111.800000 3.443805
37.300000 -111.800000 3.429153
37.600000 -111.800000 3.408223
37.900000 -111.800000 3.380634
38.200000 -111.800000 3.367914
38.500000 -111.800000 3.361349
38.800000 -111.800000 3.344272
39.100000 -111.800000 3.347671
39.400000 -111.800000 3.351337
39.700000 -111.800000 3.355792
40.000000 -111.800000 3.369504
40.300000 -111.800000 3.385828
40.600000 -111.800000 3.396408
40.900000 -111.800000 3.414355
41.200000 -111.800000 3.426821
41.500000 -111.800000 3.426796
41.800000 -111.800000 3.422002
42.100000 -111.800000 3.420360
42.400000 -111.800000 3.404064
42.700000 -111.800000 3.385913
43.000000 -111.800000 3.367075
43.300000 -111.800000 3.351871
43.600000 -111.800000 3.333093
43.900000 -111.800000 3.321431
44.200000 -111.800000 3.327918
44.500000 -111.800000 3.348950
44.800000 -111.800000 3.382404
45.100000 -111.800000 3.422675
45.400000 -111.800000 3.440884
45.700000 -111.800000 3.453238
46.000000 -111.800000 3.456470
46.300000 -111.800000 3.470278
46.600000 -111.800000 3.489783
46.900000 -111.800000 3.517487
47.200000 -111.800000 3.544778
47.500000 -111.800000 3.564852
47.800000 -111.800000 3.585851
48.100000 -111.800000 3.601387
48.400000 -111.800000 3.614992
48.700000 -111.800000 3.628564
31.900000 -111.500000 3.585333
32.200000 -111.500000 3.589935
32.500000 -111.500000 3.590345
32.800000 -111.500000 3.588718
33.100000 -111.500000 3.585733
33.400000 -111.500000 3.566398
33.700000 -111.500000 3.535417
34.000000 -111.500000 3.507088
34.300000 -111.500000 3.491021
34.600000 -111.500000 3.468586
34.900000 -111.500000 3.454961
35.200000 -111.500000 3.449448
35.500000 -111.500000 3.450251
35.800000 -111.500000 3.450892
36.100000 -111.500000 3.455930
36.400000 -111.500000 3.457893
36.700000 -111.500000 3.458937
37.000000 -111.500000 3.455895
37.300000 -111.500000 3.451311
37.600000 -111.500000 3.439259
37.900000 -111.500000 3.419554
38.200000 -111.500000 3.406991
38.500000 -111.500000 3.384086
38.800000 -111.500000 3.371549
39.100000 -111.500000 3.362936
39.400000 -111.500000 3.354027
39.700000 -111.500000 3.352584
40.000000 -111.500000 3.362029
40.300000 -111.500000 3.373787
40.600000 -111.500000 3.386910
40.900000 -111.500000 3.403689
41.200000 -111.500000 3.418998
41.500000 -111.500000 3.425993
41.800000 -111.500000 3.422332
42.100000 -111.500000 3.414343
42.400000 -111.500000 3.397107
42.700000 -111.500000 3.373645
43.000000 -111.500000 3.351836
43.300000 -111.500000 3.331227
43.600000 -111.500000 3.316593
43.900000 -111.500000 3.303640
44.200000 -111.500000 3.314651
44.500000 -111.500000 3.338048
44.800000 -111.500000 3.377337
45.100000 -111.500000 3.406304
45.400000 -111.500000 3.425249
45.700000 -111.500000 3.441958
46.000000 -111.500000 3.447670
46.300000 -111.500000 3.465809
46.600000 -111.500000 3.487227
46.900000 -111.500000 3.519182
47.200000 -111.500000 3.550335
47.500000 -111.500000 3.576346
47.800000 -111.500000 3.590912
48.100000 -111.500000 3.606599
48.400000 -111.500000 3.617345
48.700000 -111.500000 3.626350
31.600000 -111.200000 3.570565
31.900000 -111.200000 3.569110
32.200000 -111.200000 3.568309
32.500000 -111.200000 3.569451
32.800000 -111.200000 3.566698
33.100000 -111.200000 3.563719
33.400000 -111.200000 3.546705
33.700000 -111.200000 3.527554
34.000000 -111.200000 3.507967
34.300000 -111.200000 3.495786
34.600000 -111.200000 3.481306
34.900000 -111.200000 3.469932
35.200000 -111.200000 3.458615
35.500000 -111.200000 3.454852
35.800000 -111.200000 3.458988
36.100000 -111.200000 3.465343
36.400000 -111.200000 3.464642
36.700000 -111.200000 3.467413
37.000000 -111.200000 3.471620
37.300000 -111.200000 3.474949
37.600000 -111.200000 3.462784
37.900000 -111.200000 3.446308
38.200000 -111.200000 3.434407
38.500000 -111.200000 3.413322
38.800000 -111.200000 3.396419
39.100000 -111.200000 3.377646
39.400000 -111.200000 3.361333
39.700000 -111.200000 3.358435
40.000000 -111.200000 3.359790
40.300000 -111.200000 3.368793
40.600000 -111.200000 3.375699
40.900000 -111.200000 3.391596
41.200000 -111.200000 3.406570
41.500000 -111.200000 3.415235
41.800000 -111.200000 3.417486
42.100000 -111.200000 3.407820
42.400000 -111.200000 3.385575
42.700000 -111.200000 3.362883
43.000000 -111.200000 3.340282
43.300000 -111.200000 3.320537
43.600000 -111.200000 3.308814
43.900000 -111.200000 3.296740
44.200000 -111.200000 3.307549
44.500000 -111.200000 3.335427
44.800000 -111.200000 3.369814
45.100000 -111.200000 3.396461
45.400000 -111.200000 3.418379
45.700000 -111.200000 3.436869
46.000000 -111.200000 3.445450
46.300000 -111.200000 3.463674
46.600000 -111.200000 3.482577
46.900000 -111.200000 3.518604
47.200000 -111.200000 3.552612
47.500000 -111.200000 3.577680
47.800000 -111.200000 3.594258
48.100000 -111.200000 3.608575
48.400000 -111.200000 3.614228
48.700000 -111.200000 3.625513
31.600000 -110.900000 3.555289
31.900000 -110.900000 3.554073
32.200000 -110.900000 3.552536
32.500000 -110.900000 3.551891
32.800000 -110.900000 3.545794
33.100000 -110.900000 3.541692
33.400000 -110.900000 3.526162
33.700000 -110.900000 3.516463
34.000000 -110.900000 3.504780
34.300000 -110.900000 3.498578
34.600000 -110.900000 3.489973
34.900000 -110.900000 3.477787
35.200000 -110.900000 3.468987
35.500000 -110.900000 3.464163
35.800000 -110.900000 3.464292
36.100000 -110.900000 3.469343
36.400000 -110.900000 3.472707
36.700000 -110.900000 3.481998
37.000000 -110.900000 3.486155
37.300000 -110.900000 3.487564
37.600000 -110.900000 3.481013
37.900000 -110.900000 3.468842
38.200000 -110.900000 3.460449
38.500000 -110.900000 3.437312
38.800000 -110.900000 3.416969
39.100000 -110.900000 3.396227
39.400000 -110.900000 3.377002
39.700000 -110.900000 3.363852
40.000000 -110.900000 3.361906
40.300000 -110.900000 3.365062
40.600000 -110.900000 3.374075
40.900000 -110.900000 3.384105
41.200000 -110.900000 3.394069
41.500000 -110.900000 3.398990
41.800000 -110.900000 3.400547
42.100000 -110.900000 3.389180
42.400000 -110.900000 3.365772
42.700000 -110.900000 3.346859
43.000000 -110.900000 3.330257
43.300000 -110.900000 3.317173
43.600000 -110.900000 3.300846
43.900000 -110.900000 3.295006
44.200000 -110.900000 3.305781
44.500000 -110.900000 3.339693
44.800000 -110.900000 3.373630
45.100000 -110.900000 3.406483
45.400000 -110.900000 3.428273
45.700000 -110.900000 3.441058
46.000000 -110.900000 3.445868
46.300000 -110.900000 3.462583
46.600000 -110.900000 3.482010
46.900000 -110.900000 3.512046
47.200000 -110.900000 3.541361
47.500000 -110.900000 3.572339
47.800000 -110.900000 3.588806
48.100000 -110.900000 3.608075
48.400000 -110.900000 3.611367
48.700000 -110.900000 3.624135
31.600000 -110.600000 3.542781
31.900000 -110.600000 3.540087
32.200000 -110.600000 3.538575
32.500000 -110.600000 3.538777
32.800000 -110.600000 3.529462
33.100000 -110.600000 3.521586
33.400000 -110.600000 3.507015
33.700000 -110.600000 3.500669
34.000000 -110.600000 3.498147
34.300000 -110.600000 3.494126
34.600000 -110.600000 3.491454
34.900000 -110.600000 3.481627
35.200000 -110.600000 3.473497
35.500000 -110.600000 3.469476
35.800000 -110.600000 3.470806
36.100000 -110.600000 3.477165
36.400000 -110.600000 3.484723
36.700000 -110.600000 3.487737
37.000000 -110.600000 3.497913
37.300000 -110.600000 3.499349
37.600000 -110.600000 3.495234
37.900000 -110.600000 3.487723
38.200000 -110.600000 3.478646
38.500000 -110.600000 3.450789
38.800000 -110.600000 3.434833
39.100000 -110.600000 3.413481
39.400000 -110.600000 3.393915
39.700000 -110.600000 3.375076
40.000000 -110.600000 3.368030
40.300000 -110.600000 3.362077
40.600000 -110.600000 3.368643
40.900000 -110.600000 3.376264
41.200000 -110.600000 3.384607
41.500000 -110.600000 3.386303
41.800000 -110.600000 3.377466
42.100000 -110.600000 3.357451
42.400000 -110.600000 3.338470
42.700000 -110.600000 3.332846
43.000000 -110.600000 3.324001
43.300000 -110.600000 3.314823
43.600000 -110.600000 3.310357
43.900000 -110.600000 3.308167
44.200000 -110.600000 3.336819
44.500000 -110.600000 3.363775
44.800000 -110.600000 3.389613
45.100000 -110.600000 3.423008
45.400000 -110.600000 3.440215
45.700000 -110.600000 3.446575
46.000000 -110.600000 3.450923
46.300000 -110.600000 3.461034
46.600000 -110.600000 3.481343
46.900000 -110.600000 3.509819
47.200000 -110.600000 3.534478
47.500000 -110.600000 3.563647
47.800000 -110.600000 3.582624
48.100000 -110.600000 3.598999
48.400000 -110.600000 3.609516
48.700000 -110.600000 3.617498
31.300000 -110.300000 3.534981
31.600000 -110.300000 3.532345
31.900000 -110.300000 3.531790
32.200000 -110.300000 3.527340
32.500000 -110.300000 3.524183
32.800000 -110.300000 3.513189
33.100000 -110.300000 3.497048
33.400000 -110.300000 3.486400
33.700000 -110.300000 3.484214
34.000000 -110.300000 3.485955
34.300000 -110.300000 3.488512
34.600000 -110.300000 3.487143
34.900000 -110.300000 3.481462
35.200000 -110.300000 3.476569
35.500000 -110.300000 3.472085
35.800000 -110.300000 3.474999
36.100000 -110.300000 3.481564
36.400000 -110.300000 3.488546
36.700000 -110.300000 3.496012
37.000000 -110.300000 3.502776
37.300000 -110.300000 3.507498
37.600000 -110.300000 3.503363
37.900000 -110.300000 3.496937
38.200000 -110.300000 3.489597
38.500000 -110.300000 3.468383
38.800000 -110.300000 3.449555
39.100000 -110.300000 3.430730
39.400000 -110.300000 3.409882
39.700000 -110.300000 3.389774
40.000000 -110.300000 3.375847
40.300000 -110.300000 3.367173
40.600000 -110.300000 3.363281
40.900000 -110.300000 3.369676
41.200000 -110.300000 3.373950
41.500000 -110.300000 3.368092
41.800000 -110.300000 3.361033
42.100000 -110.300000 3.332585
42.400000 -110.300000 3.318347
42.700000 -110.300000 3.328167
43.000000 -110.300000 3.327649
43.300000 -110.300000 3.324548
43.600000 -110.300000 3.316416
43.900000 -110.300000 3.325841
44.200000 -110.300000 3.364598
44.500000 -110.300000 3.402360
44.800000 -110.300000 3.409857
45.100000 -110.300000 3.432216
45.400000 -110.300000 3.454502
45.700000 -110.300000 3.458289
46.000000 -110.300000 3.457889
46.300000 -110.300000 3.469353
46.600000 -110.300000 3.484011
46.900000 -110.300000 3.507629
47.200000 -110.300000 3.527731
47.500000 -110.300000 3.553377
47.800000 -110.300000 3.576635
48.100000 -110.300000 3.589954
48.400000 -110.300000 3.601523
48.700000 -110.300000 3.612417
31.300000 -110.000000 3.525556
31.600000 -110.000000 3.521574
31.900000 -110.000000 3.521414
32.200000 -110.000000 3.516291
32.500000 -110.000000 3.508328
32.800000 -110.000000 3.490199
33.100000 -110.000000 3.474545
33.400000 -110.000000 3.466179
33.700000 -110.000000 3.465220
34.000000 -110.000000 3.468685
34.300000 -110.000000 3.475157
34.600000 -110.000000 3.482001
34.900000 -110.000000 3.479064
35.200000 -110.000000 3.476505
35.500000 -110.000000 3.475778
35.800000 -110.000000 3.478848
36.100000 -110.000000 3.485384
36.400000 -110.000000 3.490177
36.700000 -110.000000 3.495017
37.000000 -110.000000 3.501278
37.300000 -110.000000 3.502747
37.600000 -110.000000 3.496456
37.900000 -110.000000 3.494766
38.200000 -110.000000 3.490252
38.500000 -110.000000 3.475628
38.800000 -110.000000 3.464727
39.100000 -110.000000 3.439880
39.400000 -110.000000 3.427235
39.700000 -110.000000 3.405383
40.000000 -110.000000 3.387944
40.300000 -110.000000 3.372391
40.600000 -110.000000 3.366619
40.900000 -110.000000 3.369916
41.200000 -110.000000 3.363086
41.500000 -110.000000 3.359544
41.800000 -110.000000 3.350373
42.100000 -110.000000 3.331889
42.400000 -110.000000 3.319728
42.700000 -110.000000 3.338865
43.000000 -110.000000 3.349851
43.300000 -110.000000 3.341957
43.600000 -110.000000 3.337336
43.900000 -110.000000 3.353046
44.200000 -110.000000 3.387560
44.500000 -110.000000 3.417577
44.800000 -110.000000 3.433481
45.100000 -110.000000 3.456893
45.400000 -110.000000 3.466903
45.700000 -110.000000 3.476584
46.000000 -110.000000 3.470479
46.300000 -110.000000 3.477663
46.600000 -110.000000 3.489706
46.900000 -110.000000 3.510110
47.200000 -110.000000 3.528502
47.500000 -110.000000 3.547267
47.800000 -110.000000 3.569030
48.100000 -110.000000 3.583575
48.400000 -110.000000 3.597007
48.700000 -110.000000 3.610086
31.300000 -109.700000 3.516379
31.600000 -109.700000 3.513370
31.900000 -109.700000 3.509403
32.200000 -109.700000 3.502907
32.500000 -109.700000 3.489275
32.800000 -109.700000 3.470019
33.100000 -109.700000 3.453527
33.400000 -109.700000 3.442990
33.700000 -109.700000 3.446514
34.000000 -109.700000 3.455877
34.300000 -109.700000 3.459514
34.600000 -109.700000 3.470135
34.900000 -109.700000 3.475126
35.200000 -109.700000 3.477647
35.500000 -109.700000 3.474525
35.800000 -109.700000 3.480279
36.100000 -109.700000 3.487458
36.400000 -109.700000 3.492957
36.700000 -109.700000 3.493695
37.000000 -109.700000 3.492957
37.300000 -109.700000 3.491201
37.600000 -109.700000 3.485855
37.900000 -109.700000 3.483341
38.200000 -109.700000 3.484536
38.500000 -109.700000 3.481386
38.800000 -109.700000 3.469693
39.100000 -109.700000 3.453741
39.400000 -109.700000 3.435614
39.700000 -109.700000 3.417362
40.000000 -109.700000 3.393260
40.300000 -109.700000 3.378236
40.600000 -109.700000 3.369310
40.900000 -109.700000 3.367844
41.200000 -109.700000 3.355057
41.500000 -109.700000 3.345431
41.800000 -109.700000 3.354834
42.100000 -109.700000 3.339403
42.400000 -109.700000 3.349748
42.700000 -109.700000 3.362496
43.000000 -109.700000 3.370502
43.300000 -109.700000 3.365204
43.600000 -109.700000 3.362884
43.900000 -109.700000 3.376241
44.200000 -109.700000 3.402717
44.500000 -109.700000 3.436600
44.800000 -109.700000 3.460727
45.100000 -109.700000 3.477704
45.400000 -109.700000 3.489233
45.700000 -109.700000 3.500212
46.000000 -109.700000 3.498649
46.300000 -109.700000 3.490187
46.600000 -109.700000 3.500092
46.900000 -109.700000 3.511822
47.200000 -109.700000 3.526373
47.500000 -109.700000 3.540777
47.800000 -109.700000 3.546024
48.100000 -109.700000 3.559982
48.400000 -109.700000 3.588953
48.700000 -109.700000 3.596995
31.300000 -109.400000 3.497752
31.600000 -109.400000 3.499351
31.900000 -109.400000 3.497660
32.200000 -109.400000 3.488886
32.500000 -109.400000 3.472277
32.800000 -109.400000 3.454582
33.100000 -109.400000 3.435495
33.400000 -109.400000 3.423519
33.700000 -109.400000 3.424986
34.000000 -109.400000 3.435534
34.300000 -109.400000 3.446566
34.600000 -109.400000 3.456284
34.900000 -109.400000 3.467929
35.200000 -109.400000 3.475591
35.500000 -109.400000 3.478754
35.800000 -109.400000 3.481106
36.100000 -109.400000 3.486624
36.400000 -109.400000 3.488759
36.700000 -109.400000 3.483215
37.000000 -109.400000 3.480672
37.300000 -109.400000 3.474390
37.600000 -109.400000 3.471276
37.900000 -109.400000 3.468976
38.200000 -109.400000 3.470174
38.500000 -109.400000 3.475816
38.800000 -109.400000 3.470580
39.100000 -109.400000 3.455000
39.400000 -109.400000 3.439338
39.700000 -109.400000 3.421884
40.000000 -109.400000 3.393390
40.300000 -109.400000 3.375767
40.600000 -109.400000 3.370713
40.900000 -109.400000 3.362680
41.200000 -109.400000 3.362110
41.500000 -109.400000 3.349454
41.800000 -109.400000 3.361977
42.100000 -109.400000 3.359030
42.400000 -109.400000 3.367524
42.700000 -109.400000 3.386209
43.000000 -109.400000 3.389670
43.300000 -109.400000 3.386018
43.600000 -109.400000 3.384347
43.900000 -109.400000 3.397608
44.200000 -109.400000 3.419587
44.500000 -109.400000 3.465043
44.800000 -109.400000 3.488186
45.100000 -109.400000 3.502362
45.400000 -109.400000 3.523461
45.700000 -109.400000 3.518734
46.000000 -109.400000 3.516091
46.300000 -109.400000 3.506052
46.600000 -109.400000 3.507676
46.900000 -109.400000 3.517877
47.200000 -109.400000 3.522809
47.500000 -109.400000 3.535019
47.800000 -109.400000 3.546603
48.100000 -109.400000 3.559415
48.400000 -109.400000 3.578996
48.700000 -109.400000 3.584746
31.300000 -109.100000 3.489275
31.600000 -109.100000 3.489690
31.900000 -109.100000 3.489001
32.200000 -109.100000 3.479907
32.500000 -109.100000 3.459344
32.800000 -109.100000 3.437608
33.100000 -109.100000 3.421539
33.400000 -109.100000 3.401821
33.700000 -109.100000 3.401948
34.000000 -109.100000 3.408735
34.300000 -109.100000 3.419953
34.600000 -109.100000 3.440086
34.900000 -109.100000 3.457844
35.200000 -109.100000 3.472088
35.500000 -109.100000 3.476890
35.800000 -109.100000 3.480550
36.100000 -109.100000 3.481359
36.400000 -109.100000 3.478433
36.700000 -109.100000 3.469605
37.000000 -109.100000 3.455581
37.300000 -109.100000 3.445921
37.600000 -109.100000 3.440290
37.900000 -109.100000 3.445205
38.200000 -109.100000 3.456411
38.500000 -109.100000 3.459473
38.800000 -109.100000 3.459455
39.100000 -109.100000 3.444621
39.400000 -109.100000 3.431529
39.700000 -109.100000 3.404829
40.000000 -109.100000 3.381285
40.300000 -109.100000 3.371353
40.600000 -109.100000 3.371463
40.900000 -109.100000 3.365077
41.200000 -109.100000 3.355145
41.500000 -109.100000 3.360931
41.800000 -109.100000 3.360402
42.100000 -109.100000 3.357963
42.400000 -109.100000 3.382528
42.700000 -109.100000 3.400978
43.000000 -109.100000 3.398606
43.300000 -109.100000 3.394295
43.600000 -109.100000 3.397724
43.900000 -109.100000 3.416145
44.200000 -109.100000 3.444600
44.500000 -109.100000 3.479492
44.800000 -109.100000 3.507206
45.100000 -109.100000 3.527309
45.400000 -109.100000 3.545572
45.700000 -109.100000 3.542937
46.000000 -109.100000 3.539494
46.300000 -109.100000 3.527391
46.600000 -109.100000 3.523491
46.900000 -109.100000 3.526526
47.200000 -109.100000 3.522129
47.500000 -109.100000 3.528202
47.800000 -109.100000 3.536465
48.100000 -109.100000 3.546502
48.400000 -109.100000 3.560885
48.700000 -109.100000 3.570491
31.300000 -108.800000 3.481000
31.600000 -108.800000 3.478472
31.900000 -108.800000 3.480322
32.200000 -108.800000 3.472034
32.500000 -108.800000 3.456957
32.800000 -108.800000 3.436293
33.100000 -108.800000 3.416709
33.400000 -108.800000 3.390030
33.700000 -108.800000 3.386372
34.000000 -108.800000 3.390725
34.300000 -108.800000 3.402657
34.600000 -108.800000 3.427236
34.900000 -108.800000 3.447237
35.200000 -108.800000 3.463864
35.500000 -108.800000 3.468298
35.800000 -108.800000 3.473519
36.100000 -108.800000 3.468685
36.400000 -108.800000 3.465311
36.700000 -108.800000 3.449498
37.000000 -108.800000 3.433313
37.300000 -108.800000 3.413328
37.600000 -108.800000 3.404728
37.900000 -108.800000 3.416512
38.200000 -108.800000 3.430592
38.500000 -108.800000 3.440885
38.800000 -108.800000 3.440811
39.100000 -108.800000 3.426493
39.400000 -108.800000 3.409722
39.700000 -108.800000 3.398350
40.000000 -108.800000 3.375785
40.300000 -108.800000 3.374049
40.600000 -108.800000 3.365272
40.900000 -108.800000 3.353359
41.200000 -108.800000 3.355508
41.500000 -108.800000 3.355567
41.800000 -108.800000 3.350608
42.100000 -108.800000 3.377260
42.400000 -108.800000 3.391857
42.700000 -108.800000 3.409133
43.000000 -108.800000 3.405042
43.300000 -108.800000 3.410063
43.600000 -108.800000 3.417031
43.900000 -108.800000 3.433293
44.200000 -108.800000 3.465205
44.500000 -108.800000 3.502109
44.800000 -108.800000 3.527901
45.100000 -108.800000 3.545541
45.400000 -108.800000 3.558276
45.700000 -108.800000 3.558541
46.000000 -108.800000 3.547513
46.300000 -108.800000 3.534914
46.600000 -108.800000 3.529311
46.900000 -108.800000 3.529612
47.200000 -108.800000 3.523517
47.500000 -108.800000 3.525472
47.800000 -108.800000 3.536870
48.100000 -108.800000 3.548420
48.400000 -108.800000 3.554979
48.700000 -108.800000 3.555479
31.300000 -108.500000 3.469762
31.600000 -108.500000 3.469668
31.900000 -108.500000 3.472688
32.200000 -108.500000 3.470298
32.500000 -108.500000 3.455221
32.800000 -108.500000 3.436347
33.100000 -108.500000 3.413483
33.400000 -108.500000 3.393460
33.700000 -108.500000 3.382505
34.000000 -108.500000 3.377192
34.300000 -108.500000 3.387819
34.600000 -108.500000 3.409228
34.900000 -108.500000 3.425928
35.200000 -108.500000 3.442603
35.500000 -108.500000 3.453342
35.800000 -108.500000 3.456916
36.100000 -108.500000 3.454176
36.400000 -108.500000 3.441888
36.700000 -108.500000 3.417241
37.000000 -108.500000 3.387502
37.300000 -108.500000 3.374286
37.600000 -108.500000 3.373984
37.900000 -108.500000 3.382472
38.200000 -108.500000 3.396483
38.500000 -108.500000 3.408234
38.800000 -108.500000 3.411388
39.100000 -108.500000 3.403684
39.400000 -108.500000 3.396238
39.700000 -108.500000 3.378058
40.000000 -108.500000 3.368958
40.300000 -108.500000 3.357675
40.600000 -108.500000 3.353571
40.900000 -108.500000 3.346824
41.200000 -108.500000 3.349129
41.500000 -108.500000 3.355018
41.800000 -108.500000 3.364857
42.100000 -108.500000 3.388454
42.400000 -108.500000 3.397750
42.700000 -108.500000 3.409369
43.000000 -108.500000 3.414984
43.300000 -108.500000 3.417469
43.600000 -108.500000 3.438309
43.900000 -108.500000 3.457510
44.200000 -108.500000 3.491257
44.500000 -108.500000 3.526036
44.800000 -108.500000 3.545678
45.100000 -108.500000 3.559343
45.400000 -108.500000 3.568178
45.700000 -108.500000 3.567650
46.000000 -108.500000 3.557757
46.300000 -108.500000 3.546163
46.600000 -108.500000 3.533743
46.900000 -108.500000 3.532402
47.200000 -108.500000 3.526346
47.500000 -108.500000 3.530320
47.800000 -108.500000 3.535380
48.100000 -108.500000 3.543591
48.400000 -108.500000 3.549123
48.700000 -108.500000 3.551154
31.600000 -108.200000 3.468165
31.900000 -108.200000 3.470369
32.200000 -108.200000 3.467674
32.500000 -108.200000 3.455995
32.800000 -108.200000 3.436285
33.100000 -108.200000 3.411514
33.400000 -108.200000 3.387173
33.700000 -108.200000 3.372352
34.000000 -108.200000 3.368968
34.300000 -108.200000 3.375591
34.600000 -108.200000 3.391652
34.900000 -108.200000 3.411111
35.200000 -108.200000 3.426935
35.500000 -108.200000 3.439878
35.800000 -108.200000 3.442860
36.100000 -108.200000 3.440557
36.400000 -108.200000 3.422521
36.700000 -108.200000 3.396551
37.000000 -108.200000 3.367272
37.300000 -108.200000 3.349226
37.600000 -108.200000 3.346124
37.900000 -108.200000 3.354510
38.200000 -108.200000 3.367988
38.500000 -108.200000 3.377342
38.800000 -108.200000 3.384810
39.100000 -108.200000 3.372997
39.400000 -108.200000 3.367718
39.700000 -108.200000 3.357099
40.000000 -108.200000 3.355519
40.300000 -108.200000 3.347188
40.600000 -108.200000 3.346565
40.900000 -108.200000 3.343375
41.200000 -108.200000 3.348533
41.500000 -108.200000 3.357532
41.800000 -108.200000 3.368703
42.100000 -108.200000 3.389856
42.400000 -108.200000 3.401850
42.700000 -108.200000 3.415279
43.000000 -108.200000 3.424506
43.300000 -108.200000 3.436601
43.600000 -108.200000 3.461978
43.900000 -108.200000 3.484801
44.200000 -108.200000 3.517298
44.500000 -108.200000 3.545300
44.800000 -108.200000 3.568410
45.100000 -108.200000 3.574424
45.400000 -108.200000 3.575477
45.700000 -108.200000 3.567450
46.000000 -108.200000 3.555525
46.300000 -108.200000 3.544170
46.600000 -108.200000 3.535339
46.900000 -108.200000 3.534519
47.200000 -108.200000 3.527872
47.500000 -108.200000 3.532358
47.800000 -108.200000 3.536284
48.100000 -108.200000 3.541560
48.400000 -108.200000 3.543199
48.700000 -108.200000 3.545018
31.900000 -107.900000 3.467854
32.200000 -107.900000 3.464407
32.500000 -107.900000 3.454816
32.800000 -107.900000 3.436362
33.100000 -107.900000 3.412316
33.400000 -107.900000 3.387975
33.700000 -107.900000 3.370962
34.000000 -107.900000 3.366863
34.300000 -107.900000 3.370032
34.600000 -107.900000 3.378205
34.900000 -107.900000 3.393266
35.200000 -107.900000 3.404697
35.500000 -107.900000 3.417641
35.800000 -107.900000 3.423914
36.100000 -107.900000 3.421067
36.400000 -107.900000 3.407896
36.700000 -107.900000 3.376381
37.000000 -107.900000 3.351487
37.300000 -107.900000 3.331861
37.600000 -107.900000 3.327544
37.900000 -107.900000 3.332681
38.200000 -107.900000 3.344149
38.500000 -107.900000 3.350954
38.800000 -107.900000 3.348271
39.100000 -107.900000 3.343880
39.400000 -107.900000 3.348269
39.700000 -107.900000 3.339840
40.000000 -107.900000 3.344894
40.300000 -107.900000 3.336053
40.600000 -107.900000 3.341967
40.900000 -107.900000 3.342404
41.200000 -107.900000 3.349918
41.500000 -107.900000 3.359214
41.800000 -107.900000 3.373214
42.100000 -107.900000 3.390935
42.400000 -107.900000 3.405978
42.700000 -107.900000 3.423428
43.000000 -107.900000 3.437446
43.300000 -107.900000 3.459146
43.600000 -107.900000 3.487574
43.900000 -107.900000 3.511478
44.200000 -107.900000 3.546018
44.500000 -107.900000 3.571459
44.800000 -107.900000 3.585261
45.100000 -107.900000 3.579016
45.400000 -107.900000 3.575655
45.700000 -107.900000 3.566649
46.000000 -107.900000 3.558871
46.300000 -107.900000 3.549292
46.600000 -107.900000 3.540538
46.900000 -107.900000 3.530659
47.200000 -107.900000 3.530019
47.500000 -107.900000 3.530630
47.800000 -107.900000 3.535825
48.100000 -107.900000 3.537571
48.400000 -107.900000 3.542133
48.700000 -107.900000 3.541130
31.900000 -107.600000 3.463020
32.200000 -107.600000 3.460433
32.500000 -107.600000 3.451882
32.800000 -107.600000 3.435371
33.100000 -107.600000 3.415298
33.400000 -107.600000 3.395222
33.700000 -107.600000 3.377658
34.000000 -107.600000 3.369169
34.300000 -107.600000 3.372050
34.600000 -107.600000 3.372119
34.900000 -107.600000 3.375872
35.200000 -107.600000 3.380623
35.500000 -107.600000 3.388598
35.800000 -107.600000 3.399492
36.100000 -107.600000 3.400766
36.400000 -107.600000 3.384029
36.700000 -107.600000 3.368337
37.000000 -107.600000 3.337435
37.300000 -107.600000 3.319788
37.600000 -107.600000 3.313969
37.900000 -107.600000 3.312883
38.200000 -107.600000 3.319832
38.500000 -107.600000 3.320526
38.800000 -107.600000 3.320672
39.100000 -107.600000 3.321762
39.400000 -107.600000 3.331697
39.700000 -107.600000 3.328663
40.000000 -107.600000 3.334916
40.300000 -107.600000 3.339222
40.600000 -107.600000 3.337264
40.900000 -107.600000 3.344147
41.200000 -107.600000 3.356360
41.500000 -107.600000 3.366364
41.800000 -107.600000 3.380644
42.100000 -107.600000 3.402022
42.400000 -107.600000 3.418254
42.700000 -107.600000 3.438519
43.000000 -107.600000 3.458055
43.300000 -107.600000 3.485443
43.600000 -107.600000 3.506055
43.900000 -107.600000 3.531237
44.200000 -107.600000 3.567003
44.500000 -107.600000 3.588669
44.800000 -107.600000 3.584407
45.100000 -107.600000 3.577866
45.400000 -107.600000 3.572315
45.700000 -107.600000 3.563550
46.000000 -107.600000 3.553153
46.300000 -107.600000 3.552760
46.600000 -107.600000 3.542797
46.900000 -107.600000 3.536457
47.200000 -107.600000 3.532855
47.500000 -107.600000 3.533851
47.800000 -107.600000 3.538290
48.100000 -107.600000 3.538547
48.400000 -107.600000 3.539289
48.700000 -107.600000 3.538540
31.900000 -107.300000 3.463444
32.200000 -107.300000 3.453540
32.500000 -107.300000 3.446528
32.800000 -107.300000 3.433368
33.100000 -107.300000 3.417696
33.400000 -107.300000 3.407871
33.700000 -107.300000 3.386492
34.000000 -107.300000 3.381531
34.300000 -107.300000 3.375287
34.600000 -107.300000 3.371049
34.900000 -107.300000 3.366244
35.200000 -107.300000 3.362155
35.500000 -107.300000 3.367411
35.800000 -107.300000 3.374729
36.100000 -107.300000 3.377474
36.400000 -107.300000 3.366388
36.700000 -107.300000 3.350501
37.000000 -107.300000 3.330944
37.300000 -107.300000 3.312979
37.600000 -107.300000 3.308592
37.900000 -107.300000 3.299865
38.200000 -107.300000 3.295760
38.500000 -107.300000 3.302442
38.800000 -107.300000 3.299763
39.100000 -107.300000 3.301522
39.400000 -107.300000 3.316557
39.700000 -107.300000 3.321782
40.000000 -107.300000 3.333645
40.300000 -107.300000 3.332454
40.600000 -107.300000 3.332123
40.900000 -107.300000 3.348242
41.200000 -107.300000 3.363678
41.500000 -107.300000 3.376903
41.800000 -107.300000 3.390459
42.100000 -107.300000 3.411430
42.400000 -107.300000 3.435078
42.700000 -107.300000 3.456514
43.000000 -107.300000 3.483248
43.300000 -107.300000 3.507283
43.600000 -107.300000 3.524635
43.900000 -107.300000 3.541070
44.200000 -107.300000 3.568972
44.500000 -107.300000 3.582767
44.800000 -107.300000 3.577816
45.100000 -107.300000 3.568939
45.400000 -107.300000 3.565655
45.700000 -107.300000 3.560424
46.000000 -107.300000 3.555937
46.300000 -107.300000 3.551198
46.600000 -107.300000 3.542345
46.900000 -107.300000 3.541982
47.200000 -107.300000 3.537610
47.500000 -107.300000 3.535577
47.800000 -107.300000 3.541241
48.100000 -107.300000 3.542121
48.400000 -107.300000 3.536985
48.700000 -107.300000 3.537666
31.900000 -107.000000 3.461968
32.200000 -107.000000 3.446868
32.500000 -107.000000 3.436441
32.800000 -107.000000 3.427546
33.100000 -107.000000 3.419730
33.400000 -107.000000 3.410234
33.700000 -107.000000 3.403076
34.000000 -107.000000 3.397180
34.300000 -107.000000 3.388803
34.600000 -107.000000 3.378596
34.900000 -107.000000 3.365664
35.200000 -107.000000 3.355461
35.500000 -107.000000 3.352893
35.800000 -107.000000 3.352635
36.100000 -107.000000 3.356683
36.400000 -107.000000 3.354576
36.700000 -107.000000 3.343486
37.000000 -107.000000 3.329861
37.300000 -107.000000 3.313083
37.600000 -107.000000 3.301428
37.900000 -107.000000 3.291480
38.200000 -107.000000 3.286611
38.500000 -107.000000 3.286589
38.800000 -107.000000 3.288765
39.100000 -107.000000 3.290535
39.400000 -107.000000 3.306223
39.700000 -107.000000 3.313644
40.000000 -107.000000 3.329522
40.300000 -107.000000 3.329782
40.600000 -107.000000 3.344548
40.900000 -107.000000 3.360787
41.200000 -107.000000 3.377534
41.500000 -107.000000 3.396759
41.800000 -107.000000 3.403910
42.100000 -107.000000 3.429999
42.400000 -107.000000 3.448443
42.700000 -107.000000 3.467783
43.000000 -107.000000 3.490501
43.300000 -107.000000 3.511460
43.600000 -107.000000 3.523892
43.900000 -107.000000 3.536710
44.200000 -107.000000 3.551093
44.500000 -107.000000 3.566510
44.800000 -107.000000 3.560073
45.100000 -107.000000 3.555999
45.400000 -107.000000 3.559016
45.700000 -107.000000 3.556971
46.000000 -107.000000 3.554878
46.300000 -107.000000 3.554441
46.600000 -107.000000 3.547752
46.900000 -107.000000 3.542536
47.200000 -107.000000 3.537818
47.500000 -107.000000 3.535679
47.800000 -107.000000 3.542215
48.100000 -107.000000 3.535961
48.400000 -107.000000 3.537758
48.700000 -107.000000 3.534975
31.900000 -106.700000 3.458930
32.200000 -106.700000 3.441647
32.500000 -106.700000 3.429934
32.800000 -106.700000 3.422702
33.100000 -106.700000 3.419204
33.400000 -106.700000 3.415214
33.700000 -106.700000 3.422257
34.000000 -106.700000 3.416227
34.300000 -106.700000 3.405172
34.600000 -106.700000 3.391122
34.900000 -106.700000 3.371937
35.200000 -106.700000 3.361267
35.500000 -106.700000 3.345523
35.800000 -106.700000 3.342232
36.100000 -106.700000 3.341155
36.400000 -106.700000 3.340734
36.700000 -106.700000 3.336299
37.000000 -106.700000 3.326387
37.300000 -106.700000 3.316458
37.600000 -106.700000 3.298782
37.900000 -106.700000 3.290647
38.200000 -106.700000 3.283554
38.500000 -106.700000 3.281769
38.800000 -106.700000 3.285042
39.100000 -106.700000 3.284791
39.400000 -106.700000 3.295162
39.700000 -106.700000 3.303730
40.000000 -106.700000 3.325391
40.300000 -106.700000 3.339523
40.600000 -106.700000 3.354057
40.900000 -106.700000 3.375980
41.200000 -106.700000 3.394526
41.500000 -106.700000 3.412326
41.800000 -106.700000 3.419710
42.100000 -106.700000 3.449655
42.400000 -106.700000 3.462743
42.700000 -106.700000 3.474627
43.000000 -106.700000 3.484294
43.300000 -106.700000 3.500376
43.600000 -106.700000 3.510702
43.900000 -106.700000 3.514933
44.200000 -106.700000 3.527083
44.500000 -106.700000 3.537053
44.800000 -106.700000 3.537664
45.100000 -106.700000 3.541516
45.400000 -106.700000 3.551049
45.700000 -106.700000 3.554736
46.000000 -106.700000 3.561369
46.300000 -106.700000 3.548068
46.600000 -106.700000 3.543738
46.900000 -106.700000 3.542495
47.200000 -106.700000 3.538232
47.500000 -106.700000 3.539079
47.800000 -106.700000 3.538555
48.100000 -106.700000 3.537565
48.400000 -106.700000 3.533787
48.700000 -106.700000 3.533850
31.600000 -106.400000 3.462919
31.900000 -106.400000 3.453656
32.200000 -106.400000 3.434701
32.500000 -106.400000 3.426185
32.800000 -106.400000 3.416567
33.100000 -106.400000 3.421605
33.400000 -106.400000 3.423300
33.700000 -106.400000 3.430239
34.000000 -106.400000 3.430545
34.300000 -106.400000 3.427423
34.600000 -106.400000 3.415080
34.900000 -106.400000 3.399833
35.200000 -106.400000 3.377409
35.500000 -106.400000 3.357672
35.800000 -106.400000 3.338972
36.100000 -106.400000 3.330845
36.400000 -106.400000 3.330653
36.700000 -106.400000 3.330265
37.000000 -106.400000 3.327839
37.300000 -106.400000 3.319874
37.600000 -106.400000 3.308058
37.900000 -106.400000 3.291564
38.200000 -106.400000 3.286609
38.500000 -106.400000 3.280950
38.800000 -106.400000 3.282316
39.100000 -106.400000 3.287226
39.400000 -106.400000 3.302675
39.700000 -106.400000 3.306828
40.000000 -106.400000 3.327371
40.300000 -106.400000 3.344627
40.600000 -106.400000 3.367552
40.900000 -106.400000 3.391811
41.200000 -106.400000 3.413106
41.500000 -106.400000 3.428978
41.800000 -106.400000 3.447099
42.100000 -106.400000 3.463334
42.400000 -106.400000 3.476984
42.700000 -106.400000 3.475028
43.000000 -106.400000 3.477325
43.300000 -106.400000 3.480383
43.600000 -106.400000 3.485515
43.900000 -106.400000 3.484775
44.200000 -106.400000 3.496119
44.500000 -106.400000 3.515010
44.800000 -106.400000 3.524669
45.100000 -106.400000 3.534571
45.400000 -106.400000 3.548643
45.700000 -106.400000 3.558936
46.000000 -106.400000 3.562753
46.300000 -106.400000 3.556694
46.600000 -106.400000 3.540887
46.900000 -106.400000 3.542544
47.200000 -106.400000 3.536339
47.500000 -106.400000 3.538232
47.800000 -106.400000 3.529650
48.100000 -106.400000 3.533171
48.400000 -106.400000 3.532833
48.700000 -106.400000 3.530611
31.600000 -106.100000 3.457383
31.900000 -106.100000 3.447161
32.200000 -106.100000 3.435262
32.500000 -106.100000 3.420582
32.800000 -106.100000 3.417549
33.100000 -106.100000 3.427038
33.400000 -106.100000 3.438678
33.700000 -106.100000 3.451865
34.000000 -106.100000 3.450999
34.300000 -106.100000 3.452495
34.600000 -106.100000 3.444195
34.900000 -106.100000 3.429006
35.200000 -106.100000 3.403381
35.500000 -106.100000 3.376085
35.800000 -106.100000 3.344493
36.100000 -106.100000 3.327870
36.400000 -106.100000 3.324654
36.700000 -106.100000 3.322928
37.000000 -106.100000 3.323291
37.300000 -106.100000 3.319250
37.600000 -106.100000 3.309173
37.900000 -106.100000 3.293582
38.200000 -106.100000 3.290979
38.500000 -106.100000 3.287907
38.800000 -106.100000 3.289601
39.100000 -106.100000 3.294376
39.400000 -106.100000 3.299850
39.700000 -106.100000 3.313404
40.000000 -106.100000 3.339003
40.300000 -106.100000 3.357070
40.600000 -106.100000 3.378660
40.900000 -106.100000 3.402629
41.200000 -106.100000 3.424811
41.500000 -106.100000 3.441572
41.800000 -106.100000 3.458602
42.100000 -106.100000 3.480741
42.400000 -106.100000 3.487317
42.700000 -106.100000 3.479025
43.000000 -106.100000 3.467302
43.300000 -106.100000 3.462884
43.600000 -106.100000 3.460042
43.900000 -106.100000 3.463700
44.200000 -106.100000 3.473802
44.500000 -106.100000 3.498030
44.800000 -106.100000 3.518555
45.100000 -106.100000 3.533320
45.400000 -106.100000 3.550894
45.700000 -106.100000 3.560836
46.000000 -106.100000 3.559948
46.300000 -106.100000 3.553924
46.600000 -106.100000 3.543581
46.900000 -106.100000 3.539205
47.200000 -106.100000 3.529722
47.500000 -106.100000 3.527968
47.800000 -106.100000 3.527431
48.100000 -106.100000 3.529409
48.400000 -106.100000 3.528805
48.700000 -106.100000 3.527305
31.300000 -105.800000 3.445074
31.600000 -105.800000 3.448113
31.900000 -105.800000 3.441775
32.200000 -105.800000 3.429367
32.500000 -105.800000 3.419264
32.800000 -105.800000 3.421833
33.100000 -105.800000 3.434005
33.400000 -105.800000 3.451202
33.700000 -105.800000 3.462654
34.000000 -105.800000 3.467624
34.300000 -105.800000 3.468023
34.600000 -105.800000 3.460620
34.900000 -105.800000 3.449163
35.200000 -105.800000 3.425859
35.500000 -105.800000 3.395588
35.800000 -105.800000 3.363897
36.100000 -105.800000 3.339568
36.400000 -105.800000 3.324974
36.700000 -105.800000 3.320267
37.000000 -105.800000 3.322040
37.300000 -105.800000 3.321839
37.600000 -105.800000 3.317504
37.900000 -105.800000 3.306841
38.200000 -105.800000 3.299512
38.500000 -105.800000 3.305364
38.800000 -105.800000 3.300514
39.100000 -105.800000 3.307286
39.400000 -105.800000 3.316617
39.700000 -105.800000 3.326993
40.000000 -105.800000 3.349515
40.300000 -105.800000 3.370511
40.600000 -105.800000 3.391728
40.900000 -105.800000 3.411053
41.200000 -105.800000 3.431920
41.500000 -105.800000 3.452502
41.800000 -105.800000 3.475375
42.100000 -105.800000 3.491034
42.400000 -105.800000 3.495443
42.700000 -105.800000 3.480013
43.000000 -105.800000 3.458645
43.300000 -105.800000 3.450374
43.600000 -105.800000 3.453787
43.900000 -105.800000 3.454842
44.200000 -105.800000 3.469065
44.500000 -105.800000 3.493909
44.800000 -105.800000 3.517443
45.100000 -105.800000 3.542604
45.400000 -105.800000 3.557497
45.700000 -105.800000 3.565857
46.000000 -105.800000 3.563050
46.300000 -105.800000 3.553388
46.600000 -105.800000 3.540287
46.900000 -105.800000 3.526427
47.200000 -105.800000 3.516905
47.500000 -105.800000 3.515699
47.800000 -105.800000 3.518270
48.100000 -105.800000 3.523131
48.400000 -105.800000 3.524257
48.700000 -105.800000 3.520884
31.000000 -105.500000 3.427671
31.300000 -105.500000 3.435377
31.600000 -105.500000 3.437211
31.900000 -105.500000 3.436997
32.200000 -105.500000 3.434594
32.500000 -105.500000 3.433460
32.800000 -105.500000 3.433614
33.100000 -105.500000 3.445794
33.400000 -105.500000 3.456558
33.700000 -105.500000 3.466385
34.000000 -105.500000 3.473147
34.300000 -105.500000 3.475761
34.600000 -105.500000 3.472409
34.900000 -105.500000 3.461849
35.200000 -105.500000 3.444808
35.500000 -105.500000 3.416793
35.800000 -105.500000 3.383745
36.100000 -105.500000 3.356180
36.400000 -105.500000 3.340208
36.700000 -105.500000 3.331103
37.000000 -105.500000 3.328505
37.300000 -105.500000 3.334634
37.600000 -105.500000 3.330353
37.900000 -105.500000 3.318521
38.200000 -105.500000 3.318137
38.500000 -105.500000 3.311323
38.800000 -105.500000 3.321901
39.100000 -105.500000 3.323991
39.400000 -105.500000 3.332246
39.700000 -105.500000 3.342605
40.000000 -105.500000 3.360493
40.300000 -105.500000 3.379927
40.600000 -105.500000 3.400979
40.900000 -105.500000 3.415418
41.200000 -105.500000 3.437106
41.500000 -105.500000 3.457031
41.800000 -105.500000 3.481517
42.100000 -105.500000 3.495104
42.400000 -105.500000 3.489894
42.700000 -105.500000 3.471601
43.000000 -105.500000 3.461099
43.300000 -105.500000 3.452149
43.600000 -105.500000 3.456683
43.900000 -105.500000 3.457002
44.200000 -105.500000 3.472619
44.500000 -105.500000 3.503911
44.800000 -105.500000 3.523243
45.100000 -105.500000 3.550020
45.400000 -105.500000 3.562257
45.700000 -105.500000 3.569104
46.000000 -105.500000 3.562260
46.300000 -105.500000 3.549296
46.600000 -105.500000 3.535249
46.900000 -105.500000 3.520002
47.200000 -105.500000 3.506572
47.500000 -105.500000 3.506318
47.800000 -105.500000 3.509087
48.100000 -105.500000 3.514724
48.400000 -105.500000 3.514098
48.700000 -105.500000 3.517451
30.700000 -105.200000 3.430680
31.000000 -105.200000 3.426181
31.300000 -105.200000 3.426883
31.600000 -105.200000 3.430007
31.900000 -105.200000 3.437880
32.200000 -105.200000 3.444454
32.500000 -105.200000 3.448324
32.800000 -105.200000 3.451257
33.100000 -105.200000 3.456087
33.400000 -105.200000 3.460111
33.700000 -105.200000 3.459415
34.000000 -105.200000 3.468090
34.300000 -105.200000 3.474095
34.600000 -105.200000 3.476110
34.900000 -105.200000 3.470467
35.200000 -105.200000 3.455993
35.500000 -105.200000 3.436340
35.800000 -105.200000 3.404329
36.100000 -105.200000 3.377573
36.400000 -105.200000 3.362028
36.700000 -105.200000 3.352994
37.000000 -105.200000 3.347557
37.300000 -105.200000 3.348005
37.600000 -105.200000 3.352912
37.900000 -105.200000 3.341691
38.200000 -105.200000 3.338591
38.500000 -105.200000 3.331732
38.800000 -105.200000 3.344212
39.100000 -105.200000 3.347475
39.400000 -105.200000 3.352275
39.700000 -105.200000 3.359644
40.000000 -105.200000 3.372094
40.300000 -105.200000 3.389055
40.600000 -105.200000 3.405231
40.900000 -105.200000 3.414894
41.200000 -105.200000 3.438090
41.500000 -105.200000 3.456493
41.800000 -105.200000 3.479224
42.100000 -105.200000 3.489897
42.400000 -105.200000 3.490824
42.700000 -105.200000 3.479096
43.000000 -105.200000 3.465559
43.300000 -105.200000 3.457081
43.600000 -105.200000 3.460883
43.900000 -105.200000 3.469553
44.200000 -105.200000 3.477113
44.500000 -105.200000 3.505290
44.800000 -105.200000 3.530903
45.100000 -105.200000 3.554091
45.400000 -105.200000 3.568846
45.700000 -105.200000 3.574441
46.000000 -105.200000 3.559735
46.300000 -105.200000 3.543178
46.600000 -105.200000 3.531746
46.900000 -105.200000 3.511325
47.200000 -105.200000 3.498246
47.500000 -105.200000 3.496943
47.800000 -105.200000 3.503353
48.100000 -105.200000 3.508629
48.400000 -105.200000 3.515469
48.700000 -105.200000 3.513330
30.400000 -104.900000 3.415202
30.700000 -104.900000 3.422226
31.000000 -104.900000 3.414459
31.300000 -104.900000 3.422043
31.600000 -104.900000 3.427745
31.900000 -104.900000 3.441094
32.200000 -104.900000 3.456726
32.500000 -104.900000 3.465115
32.800000 -104.900000 3.480621
33.100000 -104.900000 3.465348
33.400000 -104.900000 3.466465
33.700000 -104.900000 3.461768
34.000000 -104.900000 3.461444
34.300000 -104.900000 3.474937
34.600000 -104.900000 3.475853
34.900000 -104.900000 3.474984
35.200000 -104.900000 3.466023
35.500000 -104.900000 3.452063
35.800000 -104.900000 3.427096
36.100000 -104.900000 3.401911
36.400000 -104.900000 3.384040
36.700000 -104.900000 3.371855
37.000000 -104.900000 3.365942
37.300000 -104.900000 3.366927
37.600000 -104.900000 3.373866
37.900000 -104.900000 3.371633
38.200000 -104.900000 3.361274
38.500000 -104.900000 3.359314
38.800000 -104.900000 3.365950
39.100000 -104.900000 3.363964
39.400000 -104.900000 3.368757
39.700000 -104.900000 3.374362
40.000000 -104.900000 3.386606
40.300000 -104.900000 3.398143
40.600000 -104.900000 3.410009
40.900000 -104.900000 3.415282
41.200000 -104.900000 3.434557
41.500000 -104.900000 3.451356
41.800000 -104.900000 3.468234
42.100000 -104.900000 3.480987
42.400000 -104.900000 3.496324
42.700000 -104.900000 3.490564
43.000000 -104.900000 3.476802
43.300000 -104.900000 3.470524
43.600000 -104.900000 3.471910
43.900000 -104.900000 3.480066
44.200000 -104.900000 3.491332
44.500000 -104.900000 3.509881
44.800000 -104.900000 3.538958
45.100000 -104.900000 3.561802
45.400000 -104.900000 3.570100
45.700000 -104.900000 3.574887
46.000000 -104.900000 3.550037
46.300000 -104.900000 3.538555
46.600000 -104.900000 3.522289
46.900000 -104.900000 3.505673
47.200000 -104.900000 3.492988
47.500000 -104.900000 3.489616
47.800000 -104.900000 3.492140
48.100000 -104.900000 3.498458
48.400000 -104.900000 3.509223
48.700000 -104.900000 3.506128
30.400000 -104.600000 3.410210
30.700000 -104.600000 3.414287
31.000000 -104.600000 3.416743
31.300000 -104.600000 3.420294
31.600000 -104.600000 3.430344
31.900000 -104.600000 3.447118
32.200000 -104.600000 3.467942
32.500000 -104.600000 3.478484
32.800000 -104.600000 3.474788
33.100000 -104.600000 3.468463
33.400000 -104.600000 3.458248
33.700000 -104.600000 3.455337
34.000000 -104.600000 3.458344
34.300000 -104.600000 3.469242
34.600000 -104.600000 3.475189
34.900000 -104.600000 3.476452
35.200000 -104.600000 3.475618
35.500000 -104.600000 3.464701
35.800000 -104.600000 3.445750
36.100000 -104.600000 3.424729
36.400000 -104.600000 3.406872
36.700000 -104.600000 3.396130
37.000000 -104.600000 3.396684
37.300000 -104.600000 3.393250
37.600000 -104.600000 3.398471
37.900000 -104.600000 3.400533
38.200000 -104.600000 3.390950
38.500000 -104.600000 3.375805
38.800000 -104.600000 3.383757
39.100000 -104.600000 3.384467
39.400000 -104.600000 3.386375
39.700000 -104.600000 3.390992
40.000000 -104.600000 3.404014
40.300000 -104.600000 3.411282
40.600000 -104.600000 3.416728
40.900000 -104.600000 3.420835
41.200000 -104.600000 3.436779
41.500000 -104.600000 3.447979
41.800000 -104.600000 3.461187
42.100000 -104.600000 3.481382
