33.100000 -95.300000 3.835098
33.400000 -95.300000 3.844980
33.700000 -95.300000 3.850058
34.000000 -95.300000 3.823445
34.300000 -95.300000 3.809116
34.600000 -95.300000 3.804999
34.900000 -95.300000 3.829304
35.200000 -95.300000 3.860604
35.500000 -95.300000 3.900489
35.800000 -95.300000 3.926428
36.100000 -95.300000 3.928404
36.400000 -95.300000 3.922389
36.700000 -95.300000 3.917070
37.000000 -95.300000 3.912300
37.300000 -95.300000 3.911148
37.600000 -95.300000 3.907502
37.900000 -95.300000 3.912499
38.200000 -95.300000 3.915880
38.500000 -95.300000 3.918494
38.800000 -95.300000 3.922868
39.100000 -95.300000 3.930089
39.400000 -95.300000 3.934474
39.700000 -95.300000 3.926266
40.000000 -95.300000 3.909171
40.300000 -95.300000 3.881311
40.600000 -95.300000 3.854280
40.900000 -95.300000 3.825249
41.200000 -95.300000 3.810824
41.500000 -95.300000 3.809981
41.800000 -95.300000 3.824945
42.100000 -95.300000 3.849742
42.400000 -95.300000 3.873171
42.700000 -95.300000 3.888910
43.000000 -95.300000 3.890675
43.300000 -95.300000 3.884321
43.600000 -95.300000 3.886360
43.900000 -95.300000 3.901183
44.200000 -95.300000 3.911267
44.500000 -95.300000 3.914309
44.800000 -95.300000 3.908718
45.100000 -95.300000 3.902075
45.400000 -95.300000 3.897892
45.700000 -95.300000 3.900593
46.000000 -95.300000 3.916698
46.300000 -95.300000 3.938194
46.600000 -95.300000 3.960707
46.900000 -95.300000 3.973806
47.200000 -95.300000 3.983397
47.500000 -95.300000 3.988989
47.800000 -95.300000 3.988893
48.100000 -95.300000 3.985067
48.400000 -95.300000 3.981225
48.700000 -95.300000 3.965961
29.800000 -95.000000 3.761098
30.100000 -95.000000 3.804474
30.400000 -95.000000 3.836528
30.700000 -95.000000 3.860039
31.000000 -95.000000 3.865758
31.300000 -95.000000 3.859616
31.600000 -95.000000 3.845754
31.900000 -95.000000 3.833869
32.200000 -95.000000 3.826527
32.500000 -95.000000 3.826904
32.800000 -95.000000 3.823024
33.100000 -95.000000 3.841188
33.400000 -95.000000 3.854162
33.700000 -95.000000 3.855808
34.000000 -95.000000 3.829099
34.300000 -95.000000 3.810198
34.600000 -95.000000 3.805714
34.900000 -95.000000 3.825992
35.200000 -95.000000 3.859747
35.500000 -95.000000 3.899896
35.800000 -95.000000 3.929815
36.100000 -95.000000 3.934395
36.400000 -95.000000 3.929360
36.700000 -95.000000 3.922552
37.000000 -95.000000 3.917050
37.300000 -95.000000 3.913323
37.600000 -95.000000 3.908159
37.900000 -95.000000 3.908389
38.200000 -95.000000 3.907681
38.500000 -95.000000 3.907466
38.800000 -95.000000 3.910562
39.100000 -95.000000 3.917390
39.400000 -95.000000 3.919280
39.700000 -95.000000 3.915566
40.000000 -95.000000 3.903575
40.300000 -95.000000 3.885438
40.600000 -95.000000 3.860089
40.900000 -95.000000 3.834216
41.200000 -95.000000 3.811205
41.500000 -95.000000 3.804568
41.800000 -95.000000 3.810059
42.100000 -95.000000 3.830752
42.400000 -95.000000 3.851778
42.700000 -95.000000 3.871686
43.000000 -95.000000 3.880007
43.300000 -95.000000 3.880749
43.600000 -95.000000 3.884025
43.900000 -95.000000 3.895174
44.200000 -95.000000 3.906831
44.500000 -95.000000 3.907806
44.800000 -95.000000 3.905906
45.100000 -95.000000 3.898846
45.400000 -95.000000 3.894764
45.700000 -95.000000 3.894398
46.000000 -95.000000 3.908640
46.300000 -95.000000 3.927198
46.600000 -95.000000 3.949561
46.900000 -95.000000 3.966726
47.200000 -95.000000 3.976733
47.500000 -95.000000 3.983938
47.800000 -95.000000 3.989728
48.100000 -95.000000 3.990216
48.400000 -95.000000 3.988407
30.100000 -94.700000 3.811295
30.400000 -94.700000 3.844818
30.700000 -94.700000 3.870971
31.000000 -94.700000 3.876502
31.300000 -94.700000 3.871062
31.600000 -94.700000 3.862009
31.900000 -94.700000 3.850334
32.200000 -94.700000 3.839942
32.500000 -94.700000 3.837745
32.800000 -94.700000 3.836860
33.100000 -94.700000 3.851150
33.400000 -94.700000 3.860925
33.700000 -94.700000 3.858351
34.000000 -94.700000 3.834888
34.300000 -94.700000 3.814396
34.600000 -94.700000 3.808397
34.900000 -94.700000 3.826950
35.200000 -94.700000 3.860617
35.500000 -94.700000 3.899304
35.800000 -94.700000 3.926324
36.100000 -94.700000 3.935849
36.400000 -94.700000 3.931771
36.700000 -94.700000 3.923858
37.000000 -94.700000 3.919183
37.300000 -94.700000 3.916688
37.600000 -94.700000 3.909937
37.900000 -94.700000 3.906716
38.200000 -94.700000 3.902264
38.500000 -94.700000 3.899207
38.800000 -94.700000 3.899777
39.100000 -94.700000 3.903744
39.400000 -94.700000 3.906072
39.700000 -94.700000 3.905820
40.000000 -94.700000 3.900478
40.300000 -94.700000 3.891031
40.600000 -94.700000 3.866714
40.900000 -94.700000 3.844283
41.200000 -94.700000 3.817333
41.500000 -94.700000 3.806875
41.800000 -94.700000 3.804805
42.100000 -94.700000 3.820173
42.400000 -94.700000 3.839069
42.700000 -94.700000 3.858983
43.000000 -94.700000 3.871299
43.300000 -94.700000 3.875435
43.600000 -94.700000 3.875719
43.900000 -94.700000 3.882736
44.200000 -94.700000 3.894237
44.500000 -94.700000 3.897819
44.800000 -94.700000 3.899509
45.100000 -94.700000 3.894723
45.400000 -94.700000 3.891588
45.700000 -94.700000 3.891178
46.000000 -94.700000 3.901307
46.300000 -94.700000 3.916585
46.600000 -94.700000 3.937646
46.900000 -94.700000 3.957172
47.200000 -94.700000 3.970531
47.500000 -94.700000 3.980113
47.800000 -94.700000 3.987132
48.100000 -94.700000 3.991973
48.400000 -94.700000 3.992637
30.100000 -94.400000 3.808489
30.400000 -94.400000 3.843266
30.700000 -94.400000 3.871851
31.000000 -94.400000 3.881918
31.300000 -94.400000 3.880631
31.600000 -94.400000 3.874851
31.900000 -94.400000 3.862696
32.200000 -94.400000 3.851665
32.500000 -94.400000 3.847067
32.800000 -94.400000 3.846773
33.100000 -94.400000 3.859586
33.400000 -94.400000 3.867668
33.700000 -94.400000 3.861039
34.000000 -94.400000 3.838773
34.300000 -94.400000 3.822979
34.600000 -94.400000 3.812214
34.900000 -94.400000 3.829308
35.200000 -94.400000 3.861024
35.500000 -94.400000 3.894399
35.800000 -94.400000 3.919542
36.100000 -94.400000 3.930749
36.400000 -94.400000 3.928948
36.700000 -94.400000 3.920517
37.000000 -94.400000 3.916639
37.300000 -94.400000 3.915661
37.600000 -94.400000 3.909270
37.900000 -94.400000 3.904717
38.200000 -94.400000 3.900309
38.500000 -94.400000 3.894059
38.800000 -94.400000 3.893983
39.100000 -94.400000 3.892360
39.400000 -94.400000 3.896039
39.700000 -94.400000 3.898543
40.000000 -94.400000 3.895997
40.300000 -94.400000 3.892326
40.600000 -94.400000 3.870059
40.900000 -94.400000 3.852896
41.200000 -94.400000 3.828469
41.500000 -94.400000 3.817425
41.800000 -94.400000 3.810851
42.100000 -94.400000 3.821130
42.400000 -94.400000 3.838140
42.700000 -94.400000 3.854875
43.000000 -94.400000 3.865724
43.300000 -94.400000 3.868773
43.600000 -94.400000 3.865168
43.900000 -94.400000 3.867975
44.200000 -94.400000 3.875058
44.500000 -94.400000 3.880347
44.800000 -94.400000 3.885084
45.100000 -94.400000 3.886756
45.400000 -94.400000 3.886489
45.700000 -94.400000 3.888975
46.000000 -94.400000 3.895082
46.300000 -94.400000 3.908036
46.600000 -94.400000 3.928973
46.900000 -94.400000 3.947877
47.200000 -94.400000 3.964074
47.500000 -94.400000 3.976674
47.800000 -94.400000 3.983601
48.100000 -94.400000 3.989504
30.100000 -94.100000 3.791037
30.400000 -94.100000 3.826453
30.700000 -94.100000 3.855463
31.000000 -94.100000 3.879538
31.300000 -94.100000 3.885639
31.600000 -94.100000 3.879443
31.900000 -94.100000 3.868589
32.200000 -94.100000 3.858309
32.500000 -94.100000 3.850399
32.800000 -94.100000 3.850258
33.100000 -94.100000 3.863233
33.400000 -94.100000 3.869762
33.700000 -94.100000 3.863341
34.000000 -94.100000 3.845703
34.300000 -94.100000 3.831088
34.600000 -94.100000 3.818359
34.900000 -94.100000 3.834912
35.200000 -94.100000 3.861795
35.500000 -94.100000 3.890974
35.800000 -94.100000 3.911166
36.100000 -94.100000 3.922861
36.400000 -94.100000 3.921902
36.700000 -94.100000 3.912101
37.000000 -94.100000 3.909358
37.300000 -94.100000 3.909615
37.600000 -94.100000 3.904909
37.900000 -94.100000 3.902237
38.200000 -94.100000 3.900387
38.500000 -94.100000 3.896798
38.800000 -94.100000 3.894604
39.100000 -94.100000 3.888696
39.400000 -94.100000 3.892521
39.700000 -94.100000 3.893956
40.000000 -94.100000 3.893156
40.300000 -94.100000 3.888165
40.600000 -94.100000 3.874543
40.900000 -94.100000 3.863841
41.200000 -94.100000 3.844339
41.500000 -94.100000 3.832554
41.800000 -94.100000 3.825568
42.100000 -94.100000 3.833563
42.400000 -94.100000 3.847445
42.700000 -94.100000 3.860915
43.000000 -94.100000 3.867312
43.300000 -94.100000 3.863760
43.600000 -94.100000 3.853862
43.900000 -94.100000 3.852681
44.200000 -94.100000 3.853253
44.500000 -94.100000 3.856226
44.800000 -94.100000 3.861968
45.100000 -94.100000 3.870461
45.400000 -94.100000 3.876108
45.700000 -94.100000 3.883509
46.000000 -94.100000 3.890296
46.300000 -94.100000 3.901773
46.600000 -94.100000 3.921348
46.900000 -94.100000 3.940286
47.200000 -94.100000 3.958022
47.500000 -94.100000 3.970374
47.800000 -94.100000 3.981511
48.100000 -94.100000 3.986894
30.100000 -93.800000 3.774221
30.400000 -93.800000 3.799370
30.700000 -93.800000 3.834385
31.000000 -93.800000 3.864229
31.300000 -93.800000 3.876956
31.600000 -93.800000 3.875285
31.900000 -93.800000 3.867680
32.200000 -93.800000 3.859969
32.500000 -93.800000 3.849538
32.800000 -93.800000 3.847311
33.100000 -93.800000 3.861926
33.400000 -93.800000 3.867481
33.700000 -93.800000 3.865417
34.000000 -93.800000 3.853832
34.300000 -93.800000 3.840822
34.600000 -93.800000 3.827105
34.900000 -93.800000 3.839171
35.200000 -93.800000 3.863727
35.500000 -93.800000 3.887595
35.800000 -93.800000 3.907300
36.100000 -93.800000 3.915536
36.400000 -93.800000 3.913258
36.700000 -93.800000 3.902958
37.000000 -93.800000 3.899342
37.300000 -93.800000 3.897939
37.600000 -93.800000 3.899176
37.900000 -93.800000 3.901428
38.200000 -93.800000 3.902966
38.500000 -93.800000 3.904966
38.800000 -93.800000 3.902714
39.100000 -93.800000 3.894648
39.400000 -93.800000 3.892894
39.700000 -93.800000 3.890527
40.000000 -93.800000 3.886828
40.300000 -93.800000 3.883079
40.600000 -93.800000 3.878491
40.900000 -93.800000 3.874681
41.200000 -93.800000 3.862921
41.500000 -93.800000 3.851691
41.800000 -93.800000 3.847949
42.100000 -93.800000 3.857554
42.400000 -93.800000 3.865677
42.700000 -93.800000 3.873501
43.000000 -93.800000 3.871513
43.300000 -93.800000 3.860201
43.600000 -93.800000 3.847079
43.900000 -93.800000 3.839234
44.200000 -93.800000 3.832883
44.500000 -93.800000 3.830983
44.800000 -93.800000 3.835049
45.100000 -93.800000 3.849802
45.400000 -93.800000 3.860456
45.700000 -93.800000 3.872099
46.000000 -93.800000 3.885931
46.300000 -93.800000 3.898905
46.600000 -93.800000 3.917021
46.900000 -93.800000 3.936050
47.200000 -93.800000 3.951536
47.500000 -93.800000 3.962813
48.100000 -93.800000 3.978182
30.100000 -93.500000 3.759472
30.400000 -93.500000 3.778163
30.700000 -93.500000 3.806112
31.000000 -93.500000 3.839656
31.300000 -93.500000 3.858238
31.600000 -93.500000 3.865543
31.900000 -93.500000 3.864468
32.200000 -93.500000 3.857636
32.500000 -93.500000 3.845210
32.800000 -93.500000 3.841506
33.100000 -93.500000 3.854577
33.400000 -93.500000 3.861760
33.700000 -93.500000 3.867119
34.000000 -93.500000 3.862920
34.300000 -93.500000 3.846883
34.600000 -93.500000 3.836530
34.900000 -93.500000 3.845646
35.200000 -93.500000 3.866848
35.500000 -93.500000 3.888306
35.800000 -93.500000 3.905612
36.100000 -93.500000 3.909693
36.400000 -93.500000 3.906318
36.700000 -93.500000 3.896026
37.000000 -93.500000 3.890122
37.300000 -93.500000 3.887463
37.600000 -93.500000 3.893446
37.900000 -93.500000 3.903091
38.200000 -93.500000 3.909186
38.500000 -93.500000 3.918087
38.800000 -93.500000 3.913915
39.100000 -93.500000 3.905746
39.400000 -93.500000 3.895923
39.700000 -93.500000 3.889294
40.000000 -93.500000 3.884839
40.300000 -93.500000 3.880441
40.600000 -93.500000 3.885036
40.900000 -93.500000 3.885323
41.200000 -93.500000 3.879083
41.500000 -93.500000 3.869955
41.800000 -93.500000 3.873323
42.100000 -93.500000 3.884610
42.400000 -93.500000 3.888833
42.700000 -93.500000 3.890347
43.000000 -93.500000 3.880464
43.300000 -93.500000 3.863258
43.600000 -93.500000 3.845126
43.900000 -93.500000 3.829617
44.200000 -93.500000 3.819502
44.500000 -93.500000 3.812016
44.800000 -93.500000 3.813056
45.100000 -93.500000 3.831200
45.400000 -93.500000 3.846049
45.700000 -93.500000 3.856769
46.000000 -93.500000 3.879600
46.300000 -93.500000 3.896932
46.600000 -93.500000 3.915065
46.900000 -93.500000 3.934182
47.200000 -93.500000 3.947443
47.500000 -93.500000 3.955817
47.800000 -93.500000 3.970187
48.100000 -93.500000 3.976206
29.800000 -93.200000 3.778878
30.100000 -93.200000 3.760154
30.400000 -93.200000 3.756414
30.700000 -93.200000 3.785799
31.000000 -93.200000 3.812539
31.300000 -93.200000 3.836208
31.600000 -93.200000 3.854213
31.900000 -93.200000 3.860313
32.200000 -93.200000 3.853687
32.500000 -93.200000 3.840575
32.800000 -93.200000 3.834903
33.100000 -93.200000 3.847303
33.400000 -93.200000 3.855800
33.700000 -93.200000 3.865640
34.000000 -93.200000 3.865414
34.300000 -93.200000 3.855122
34.600000 -93.200000 3.844351
34.900000 -93.200000 3.850027
35.200000 -93.200000 3.869180
35.500000 -93.200000 3.890461
35.800000 -93.200000 3.905609
36.100000 -93.200000 3.904639
36.400000 -93.200000 3.898979
36.700000 -93.200000 3.890150
37.000000 -93.200000 3.881892
37.300000 -93.200000 3.880536
37.600000 -93.200000 3.892209
37.900000 -93.200000 3.907628
38.200000 -93.200000 3.916770
38.500000 -93.200000 3.928049
38.800000 -93.200000 3.922389
39.100000 -93.200000 3.914152
39.400000 -93.200000 3.899291
39.700000 -93.200000 3.889816
40.000000 -93.200000 3.886532
40.300000 -93.200000 3.883087
40.600000 -93.200000 3.891141
40.900000 -93.200000 3.895012
41.200000 -93.200000 3.892384
41.500000 -93.200000 3.888781
41.800000 -93.200000 3.894648
42.100000 -93.200000 3.908752
42.400000 -93.200000 3.912161
42.700000 -93.200000 3.909271
43.000000 -93.200000 3.895996
43.300000 -93.200000 3.874484
43.600000 -93.200000 3.848417
43.900000 -93.200000 3.827004
44.200000 -93.200000 3.815052
44.500000 -93.200000 3.805659
44.800000 -93.200000 3.804299
45.100000 -93.200000 3.824452
45.400000 -93.200000 3.832856
45.700000 -93.200000 3.846301
46.000000 -93.200000 3.870636
46.300000 -93.200000 3.895109
46.600000 -93.200000 3.920273
46.900000 -93.200000 3.936549
47.200000 -93.200000 3.947015
47.500000 -93.200000 3.953533
47.800000 -93.200000 3.970187
29.800000 -92.900000 3.778878
30.100000 -92.900000 3.755683
30.400000 -92.900000 3.749190
30.700000 -92.900000 3.769544
31.000000 -92.900000 3.788968
31.300000 -92.900000 3.819598
31.600000 -92.900000 3.844056
31.900000 -92.900000 3.856398
32.200000 -92.900000 3.851135
32.500000 -92.900000 3.837561
32.800000 -92.900000 3.831030
33.100000 -92.900000 3.839965
33.400000 -92.900000 3.851844
33.700000 -92.900000 3.863592
34.000000 -92.900000 3.863058
34.300000 -92.900000 3.858413
34.600000 -92.900000 3.850013
34.900000 -92.900000 3.856732
35.200000 -92.900000 3.871900
35.500000 -92.900000 3.892160
35.800000 -92.900000 3.903921
36.100000 -92.900000 3.899827
36.400000 -92.900000 3.892255
36.700000 -92.900000 3.885831
37.000000 -92.900000 3.877526
37.300000 -92.900000 3.879943
37.600000 -92.900000 3.894065
37.900000 -92.900000 3.911090
38.200000 -92.900000 3.923567
38.500000 -92.900000 3.931876
38.800000 -92.900000 3.925884
39.100000 -92.900000 3.918291
39.400000 -92.900000 3.903573
39.700000 -92.900000 3.894571
40.000000 -92.900000 3.891207
40.300000 -92.900000 3.889150
40.600000 -92.900000 3.900204
40.900000 -92.900000 3.904968
41.200000 -92.900000 3.902227
41.500000 -92.900000 3.899681
41.800000 -92.900000 3.908741
42.100000 -92.900000 3.923643
42.400000 -92.900000 3.930873
42.700000 -92.900000 3.927532
43.000000 -92.900000 3.916106
43.300000 -92.900000 3.891306
43.600000 -92.900000 3.859012
43.900000 -92.900000 3.835304
44.200000 -92.900000 3.822302
44.500000 -92.900000 3.812525
44.800000 -92.900000 3.811009
45.100000 -92.900000 3.828522
45.400000 -92.900000 3.836331
45.700000 -92.900000 3.844770
46.000000 -92.900000 3.865113
46.300000 -92.900000 3.893932
46.600000 -92.900000 3.927594
46.900000 -92.900000 3.944596
47.200000 -92.900000 3.954081
47.500000 -92.900000 3.956858
30.100000 -92.600000 3.752820
30.400000 -92.600000 3.744406
30.700000 -92.600000 3.766606
31.000000 -92.600000 3.778262
31.300000 -92.600000 3.807053
31.600000 -92.600000 3.836136
31.900000 -92.600000 3.853928
32.200000 -92.600000 3.849975
32.500000 -92.600000 3.839066
32.800000 -92.600000 3.830778
33.100000 -92.600000 3.838671
33.400000 -92.600000 3.850704
33.700000 -92.600000 3.860179
34.000000 -92.600000 3.857094
34.300000 -92.600000 3.857141
34.600000 -92.600000 3.850535
34.900000 -92.600000 3.862462
35.200000 -92.600000 3.875758
35.500000 -92.600000 3.893809
35.800000 -92.600000 3.900982
36.100000 -92.600000 3.894670
36.400000 -92.600000 3.885314
36.700000 -92.600000 3.881120
37.000000 -92.600000 3.878334
37.300000 -92.600000 3.884473
37.600000 -92.600000 3.898770
37.900000 -92.600000 3.912021
38.200000 -92.600000 3.921548
38.500000 -92.600000 3.927251
38.800000 -92.600000 3.923430
39.100000 -92.600000 3.917899
39.400000 -92.600000 3.907538
39.700000 -92.600000 3.899604
40.000000 -92.600000 3.898592
40.300000 -92.600000 3.898088
40.600000 -92.600000 3.910929
40.900000 -92.600000 3.916019
41.200000 -92.600000 3.912425
41.500000 -92.600000 3.910825
41.800000 -92.600000 3.916622
42.100000 -92.600000 3.932242
42.400000 -92.600000 3.945604
42.700000 -92.600000 3.943505
43.000000 -92.600000 3.935145
43.300000 -92.600000 3.910451
43.600000 -92.600000 3.876350
43.900000 -92.600000 3.853014
44.200000 -92.600000 3.838208
44.500000 -92.600000 3.828142
44.800000 -92.600000 3.827686
45.100000 -92.600000 3.842729
45.400000 -92.600000 3.846230
45.700000 -92.600000 3.852121
46.000000 -92.600000 3.865547
46.300000 -92.600000 3.890790
46.600000 -92.600000 3.929951
46.900000 -92.600000 3.952934
47.200000 -92.600000 3.965472
47.500000 -92.600000 3.967533
47.800000 -92.600000 3.969948
29.800000 -92.300000 3.776854
30.100000 -92.300000 3.753502
30.400000 -92.300000 3.754252
30.700000 -92.300000 3.769596
31.000000 -92.300000 3.776273
31.300000 -92.300000 3.800689
31.600000 -92.300000 3.831549
31.900000 -92.300000 3.852284
32.200000 -92.300000 3.852867
32.500000 -92.300000 3.844529
32.800000 -92.300000 3.837944
33.100000 -92.300000 3.842524
33.400000 -92.300000 3.852076
33.700000 -92.300000 3.857918
34.000000 -92.300000 3.850921
34.300000 -92.300000 3.851307
34.600000 -92.300000 3.849727
34.900000 -92.300000 3.866541
35.200000 -92.300000 3.881648
35.500000 -92.300000 3.894408
35.800000 -92.300000 3.895069
36.100000 -92.300000 3.890135
36.400000 -92.300000 3.881477
36.700000 -92.300000 3.881074
37.000000 -92.300000 3.883755
37.300000 -92.300000 3.890649
37.600000 -92.300000 3.902833
37.900000 -92.300000 3.908479
38.200000 -92.300000 3.912005
38.500000 -92.300000 3.911669
38.800000 -92.300000 3.912384
39.100000 -92.300000 3.910484
39.400000 -92.300000 3.907056
39.700000 -92.300000 3.906394
40.000000 -92.300000 3.906073
40.300000 -92.300000 3.910529
40.600000 -92.300000 3.923127
40.900000 -92.300000 3.923852
41.200000 -92.300000 3.920356
41.500000 -92.300000 3.914329
41.800000 -92.300000 3.921107
42.100000 -92.300000 3.937397
42.400000 -92.300000 3.951589
42.700000 -92.300000 3.951348
43.000000 -92.300000 3.946319
43.300000 -92.300000 3.924456
43.600000 -92.300000 3.893090
43.900000 -92.300000 3.871833
44.200000 -92.300000 3.856635
44.500000 -92.300000 3.849639
44.800000 -92.300000 3.846197
45.100000 -92.300000 3.860218
45.400000 -92.300000 3.864393
45.700000 -92.300000 3.862933
46.000000 -92.300000 3.869676
46.300000 -92.300000 3.887406
46.600000 -92.300000 3.928808
46.900000 -92.300000 3.959246
47.200000 -92.300000 3.979212
47.500000 -92.300000 3.981661
47.800000 -92.300000 3.977066
29.800000 -92.000000 3.773699
30.100000 -92.000000 3.759290
30.400000 -92.000000 3.763409
30.700000 -92.000000 3.771914
31.000000 -92.000000 3.781832
31.300000 -92.000000 3.803034
31.600000 -92.000000 3.832070
31.900000 -92.000000 3.854265
32.200000 -92.000000 3.859253
32.500000 -92.000000 3.855196
32.800000 -92.000000 3.848488
33.100000 -92.000000 3.850843
33.400000 -92.000000 3.853994
33.700000 -92.000000 3.857240
34.000000 -92.000000 3.846250
34.300000 -92.000000 3.843535
34.600000 -92.000000 3.848173
34.900000 -92.000000 3.871836
35.200000 -92.000000 3.886786
35.500000 -92.000000 3.895873
35.800000 -92.000000 3.889979
36.100000 -92.000000 3.886617
36.400000 -92.000000 3.880400
36.700000 -92.000000 3.884174
37.000000 -92.000000 3.893876
37.300000 -92.000000 3.896330
37.600000 -92.000000 3.904659
37.900000 -92.000000 3.902355
38.200000 -92.000000 3.897971
38.500000 -92.000000 3.893541
38.800000 -92.000000 3.895950
39.100000 -92.000000 3.899099
39.400000 -92.000000 3.902171
39.700000 -92.000000 3.908029
40.000000 -92.000000 3.911502
40.300000 -92.000000 3.921864
40.600000 -92.000000 3.930388
40.900000 -92.000000 3.928686
41.200000 -92.000000 3.921950
41.500000 -92.000000 3.915799
41.800000 -92.000000 3.923802
42.100000 -92.000000 3.936668
42.400000 -92.000000 3.949512
42.700000 -92.000000 3.948735
43.000000 -92.000000 3.945602
43.300000 -92.000000 3.928684
43.600000 -92.000000 3.903654
43.900000 -92.000000 3.884208
44.200000 -92.000000 3.869909
44.500000 -92.000000 3.868947
44.800000 -92.000000 3.865171
45.100000 -92.000000 3.877073
45.400000 -92.000000 3.878768
45.700000 -92.000000 3.878028
46.000000 -92.000000 3.874450
46.300000 -92.000000 3.882842
46.600000 -92.000000 3.923110
46.900000 -92.000000 3.958234
47.200000 -92.000000 3.983485
47.500000 -92.000000 3.993458
47.800000 -92.000000 3.987265
29.800000 -91.700000 3.773967
30.100000 -91.700000 3.770891
30.400000 -91.700000 3.768927
30.700000 -91.700000 3.772884
31.000000 -91.700000 3.786162
31.300000 -91.700000 3.810750
31.600000 -91.700000 3.837598
31.900000 -91.700000 3.861336
32.200000 -91.700000 3.870151
32.500000 -91.700000 3.868533
32.800000 -91.700000 3.862916
33.100000 -91.700000 3.858683
33.400000 -91.700000 3.856096
33.700000 -91.700000 3.858735
34.000000 -91.700000 3.844003
34.300000 -91.700000 3.841132
34.600000 -91.700000 3.851393
34.900000 -91.700000 3.875177
35.200000 -91.700000 3.888416
35.500000 -91.700000 3.893340
35.800000 -91.700000 3.887264
36.100000 -91.700000 3.886639
36.400000 -91.700000 3.883836
36.700000 -91.700000 3.890724
37.000000 -91.700000 3.903920
37.300000 -91.700000 3.902586
37.600000 -91.700000 3.904439
37.900000 -91.700000 3.895493
38.200000 -91.700000 3.885598
38.500000 -91.700000 3.877287
38.800000 -91.700000 3.877520
39.100000 -91.700000 3.885344
39.400000 -91.700000 3.895193
39.700000 -91.700000 3.906611
40.000000 -91.700000 3.915407
40.300000 -91.700000 3.928972
40.600000 -91.700000 3.932740
40.900000 -91.700000 3.926637
41.200000 -91.700000 3.918590
41.500000 -91.700000 3.910284
41.800000 -91.700000 3.923821
42.100000 -91.700000 3.931582
42.400000 -91.700000 3.939687
42.700000 -91.700000 3.937673
43.000000 -91.700000 3.935174
43.300000 -91.700000 3.922220
43.600000 -91.700000 3.905616
43.900000 -91.700000 3.889386
44.200000 -91.700000 3.879473
44.500000 -91.700000 3.883823
44.800000 -91.700000 3.879210
45.100000 -91.700000 3.888233
45.400000 -91.700000 3.892548
45.700000 -91.700000 3.891702
46.000000 -91.700000 3.879492
46.300000 -91.700000 3.882233
46.600000 -91.700000 3.922750
46.900000 -91.700000 3.957931
47.200000 -91.700000 3.974123
47.500000 -91.700000 3.995561
47.800000 -91.700000 3.992005
29.800000 -91.400000 3.774984
30.100000 -91.400000 3.772991
30.400000 -91.400000 3.773798
30.700000 -91.400000 3.776379
31.000000 -91.400000 3.790039
31.300000 -91.400000 3.818109
31.600000 -91.400000 3.842089
31.900000 -91.400000 3.866822
32.200000 -91.400000 3.878099
32.500000 -91.400000 3.878205
32.800000 -91.400000 3.870941
33.100000 -91.400000 3.865630
33.400000 -91.400000 3.857508
33.700000 -91.400000 3.859479
34.000000 -91.400000 3.845963
34.300000 -91.400000 3.845354
34.600000 -91.400000 3.857841
34.900000 -91.400000 3.879005
35.200000 -91.400000 3.888832
35.500000 -91.400000 3.892628
35.800000 -91.400000 3.889418
36.100000 -91.400000 3.890407
36.400000 -91.400000 3.888971
36.700000 -91.400000 3.894039
37.000000 -91.400000 3.911183
37.300000 -91.400000 3.906439
37.600000 -91.400000 3.901616
37.900000 -91.400000 3.888699
38.200000 -91.400000 3.876324
38.500000 -91.400000 3.867518
38.800000 -91.400000 3.864928
39.100000 -91.400000 3.875739
39.400000 -91.400000 3.891133
39.700000 -91.400000 3.904317
40.000000 -91.400000 3.918118
40.300000 -91.400000 3.930775
40.600000 -91.400000 3.928689
40.900000 -91.400000 3.920859
41.200000 -91.400000 3.913409
41.500000 -91.400000 3.904192
41.800000 -91.400000 3.920938
42.100000 -91.400000 3.922257
42.400000 -91.400000 3.929589
42.700000 -91.400000 3.922223
43.000000 -91.400000 3.919690
43.300000 -91.400000 3.912627
43.600000 -91.400000 3.905466
43.900000 -91.400000 3.892719
44.200000 -91.400000 3.885880
44.500000 -91.400000 3.892772
44.800000 -91.400000 3.892594
45.100000 -91.400000 3.894896
45.400000 -91.400000 3.901969
45.700000 -91.400000 3.901566
46.000000 -91.400000 3.886734
46.300000 -91.400000 3.881192
47.200000 -91.400000 3.954672
47.500000 -91.400000 3.999299
29.800000 -91.100000 3.776423
30.100000 -91.100000 3.774937
30.400000 -91.100000 3.780241
30.700000 -91.100000 3.783863
31.000000 -91.100000 3.794443
31.300000 -91.100000 3.820458
31.600000 -91.100000 3.841080
31.900000 -91.100000 3.865430
32.200000 -91.100000 3.876705
32.500000 -91.100000 3.879453
32.800000 -91.100000 3.873540
33.100000 -91.100000 3.869902
33.400000 -91.100000 3.861824
33.700000 -91.100000 3.862679
34.000000 -91.100000 3.854631
34.300000 -91.100000 3.856348
34.600000 -91.100000 3.867267
34.900000 -91.100000 3.880973
35.200000 -91.100000 3.886449
35.500000 -91.100000 3.892047
35.800000 -91.100000 3.891169
36.100000 -91.100000 3.892855
36.400000 -91.100000 3.892888
36.700000 -91.100000 3.893371
37.000000 -91.100000 3.911180
37.300000 -91.100000 3.907189
37.600000 -91.100000 3.895915
37.900000 -91.100000 3.881462
38.200000 -91.100000 3.869162
38.500000 -91.100000 3.858920
38.800000 -91.100000 3.856677
39.100000 -91.100000 3.867837
39.400000 -91.100000 3.887888
39.700000 -91.100000 3.903872
40.000000 -91.100000 3.919541
40.300000 -91.100000 3.929913
40.600000 -91.100000 3.923471
40.900000 -91.100000 3.911910
41.200000 -91.100000 3.910093
41.500000 -91.100000 3.900273
41.800000 -91.100000 3.918828
42.100000 -91.100000 3.918053
42.400000 -91.100000 3.921289
42.700000 -91.100000 3.910063
43.000000 -91.100000 3.907750
43.300000 -91.100000 3.905497
43.600000 -91.100000 3.906077
43.900000 -91.100000 3.896776
44.200000 -91.100000 3.894930
44.500000 -91.100000 3.901479
44.800000 -91.100000 3.900128
45.100000 -91.100000 3.899301
45.400000 -91.100000 3.906965
45.700000 -91.100000 3.907194
46.000000 -91.100000 3.891571
46.300000 -91.100000 3.882686
46.900000 -91.100000 3.901451
47.200000 -91.100000 3.942766
47.500000 -91.100000 3.989851
29.500000 -90.800000 3.783177
29.800000 -90.800000 3.777941
30.100000 -90.800000 3.778718
30.400000 -90.800000 3.791540
30.700000 -90.800000 3.792856
31.000000 -90.800000 3.797762
31.300000 -90.800000 3.819532
31.600000 -90.800000 3.836458
31.900000 -90.800000 3.858143
32.200000 -90.800000 3.867340
32.500000 -90.800000 3.870070
32.800000 -90.800000 3.868693
33.100000 -90.800000 3.871049
33.400000 -90.800000 3.865897
33.700000 -90.800000 3.866248
34.000000 -90.800000 3.866939
34.300000 -90.800000 3.871550
34.600000 -90.800000 3.878188
34.900000 -90.800000 3.883817
35.200000 -90.800000 3.886825
35.500000 -90.800000 3.892603
35.800000 -90.800000 3.888934
36.100000 -90.800000 3.892534
36.400000 -90.800000 3.893833
36.700000 -90.800000 3.889424
37.000000 -90.800000 3.904325
37.300000 -90.800000 3.898717
37.600000 -90.800000 3.887342
37.900000 -90.800000 3.874108
38.200000 -90.800000 3.864994
38.500000 -90.800000 3.851548
38.800000 -90.800000 3.850712
39.100000 -90.800000 3.860865
39.400000 -90.800000 3.884980
39.700000 -90.800000 3.903040
40.000000 -90.800000 3.914842
40.300000 -90.800000 3.926021
40.600000 -90.800000 3.916000
40.900000 -90.800000 3.901818
41.200000 -90.800000 3.904142
41.500000 -90.800000 3.899430
41.800000 -90.800000 3.915399
42.100000 -90.800000 3.917306
42.400000 -90.800000 3.917019
42.700000 -90.800000 3.904884
43.000000 -90.800000 3.903156
43.300000 -90.800000 3.902454
43.600000 -90.800000 3.908313
43.900000 -90.800000 3.903315
44.200000 -90.800000 3.902624
44.500000 -90.800000 3.908339
44.800000 -90.800000 3.906708
45.100000 -90.800000 3.903144
45.400000 -90.800000 3.908161
45.700000 -90.800000 3.910103
46.000000 -90.800000 3.896731
46.300000 -90.800000 3.883842
47.500000 -90.800000 3.969621
29.500000 -90.500000 3.783177
29.800000 -90.500000 3.791232
30.100000 -90.500000 3.783594
30.400000 -90.500000 3.799564
30.700000 -90.500000 3.798736
31.000000 -90.500000 3.800300
31.300000 -90.500000 3.817360
31.600000 -90.500000 3.829896
31.900000 -90.500000 3.848313
32.200000 -90.500000 3.853893
32.500000 -90.500000 3.856856
32.800000 -90.500000 3.858482
33.100000 -90.500000 3.864612
33.400000 -90.500000 3.866973
33.700000 -90.500000 3.874232
34.000000 -90.500000 3.881993
34.300000 -90.500000 3.889328
34.600000 -90.500000 3.892207
34.900000 -90.500000 3.890971
35.200000 -90.500000 3.889254
35.500000 -90.500000 3.891444
35.800000 -90.500000 3.883695
36.100000 -90.500000 3.887420
36.400000 -90.500000 3.890518
36.700000 -90.500000 3.884850
37.000000 -90.500000 3.892791
37.300000 -90.500000 3.886746
37.600000 -90.500000 3.875350
37.900000 -90.500000 3.866592
38.200000 -90.500000 3.862153
38.500000 -90.500000 3.847298
38.800000 -90.500000 3.846920
39.100000 -90.500000 3.854160
39.400000 -90.500000 3.880747
39.700000 -90.500000 3.897022
40.000000 -90.500000 3.907219
40.300000 -90.500000 3.918092
40.600000 -90.500000 3.904991
40.900000 -90.500000 3.887337
41.200000 -90.500000 3.897441
41.500000 -90.500000 3.898845
41.800000 -90.500000 3.914237
42.100000 -90.500000 3.919653
42.400000 -90.500000 3.917414
42.700000 -90.500000 3.912649
43.000000 -90.500000 3.905923
43.300000 -90.500000 3.902886
43.600000 -90.500000 3.913101
43.900000 -90.500000 3.911148
44.200000 -90.500000 3.912454
44.500000 -90.500000 3.918025
44.800000 -90.500000 3.912133
45.100000 -90.500000 3.909245
45.400000 -90.500000 3.908750
45.700000 -90.500000 3.910475
46.000000 -90.500000 3.900200
46.300000 -90.500000 3.886347
47.500000 -90.500000 3.924616
47.800000 -90.500000 3.909261
29.800000 -90.200000 3.813203
30.100000 -90.200000 3.788976
30.400000 -90.200000 3.800208
30.700000 -90.200000 3.799819
31.000000 -90.200000 3.803112
31.300000 -90.200000 3.817242
31.600000 -90.200000 3.826816
31.900000 -90.200000 3.840809
32.200000 -90.200000 3.842163
32.500000 -90.200000 3.841630
32.800000 -90.200000 3.843503
33.100000 -90.200000 3.851803
33.400000 -90.200000 3.860916
33.700000 -90.200000 3.877422
34.000000 -90.200000 3.894823
34.300000 -90.200000 3.907353
34.600000 -90.200000 3.910474
34.900000 -90.200000 3.903512
35.200000 -90.200000 3.897539
35.500000 -90.200000 3.891199
35.800000 -90.200000 3.880225
36.100000 -90.200000 3.884101
36.400000 -90.200000 3.884752
36.700000 -90.200000 3.878628
37.000000 -90.200000 3.879362
37.300000 -90.200000 3.871937
37.600000 -90.200000 3.863355
37.900000 -90.200000 3.859653
38.200000 -90.200000 3.859071
38.500000 -90.200000 3.846827
38.800000 -90.200000 3.844489
39.100000 -90.200000 3.849109
39.400000 -90.200000 3.874592
39.700000 -90.200000 3.889960
40.000000 -90.200000 3.900279
40.300000 -90.200000 3.905054
40.600000 -90.200000 3.890209
40.900000 -90.200000 3.874888
41.200000 -90.200000 3.888640
41.500000 -90.200000 3.898932
41.800000 -90.200000 3.915881
42.100000 -90.200000 3.925427
42.400000 -90.200000 3.924928
42.700000 -90.200000 3.926752
43.000000 -90.200000 3.914703
43.300000 -90.200000 3.913216
43.600000 -90.200000 3.920181
43.900000 -90.200000 3.923629
44.200000 -90.200000 3.921370
44.500000 -90.200000 3.925981
44.800000 -90.200000 3.916462
45.100000 -90.200000 3.915325
45.400000 -90.200000 3.909253
45.700000 -90.200000 3.909404
46.000000 -90.200000 3.902970
46.300000 -90.200000 3.889447
47.500000 -90.200000 3.901388
47.800000 -90.200000 3.889595
29.500000 -89.900000 3.819666
29.800000 -89.900000 3.828289
30.100000 -89.900000 3.790080
30.400000 -89.900000 3.800114
30.700000 -89.900000 3.801470
31.000000 -89.900000 3.810382
31.300000 -89.900000 3.823364
31.600000 -89.900000 3.828777
31.900000 -89.900000 3.836689
32.200000 -89.900000 3.834383
32.500000 -89.900000 3.828735
32.800000 -89.900000 3.828381
33.100000 -89.900000 3.835655
33.400000 -89.900000 3.848963
33.700000 -89.900000 3.874268
34.000000 -89.900000 3.902642
34.300000 -89.900000 3.920240
34.600000 -89.900000 3.927083
34.900000 -89.900000 3.919282
35.200000 -89.900000 3.908830
35.500000 -89.900000 3.895064
35.800000 -89.900000 3.881834
36.100000 -89.900000 3.881553
36.400000 -89.900000 3.879440
36.700000 -89.900000 3.869893
37.000000 -89.900000 3.867663
37.300000 -89.900000 3.860182
37.600000 -89.900000 3.854466
37.900000 -89.900000 3.854722
38.200000 -89.900000 3.856649
38.500000 -89.900000 3.849948
38.800000 -89.900000 3.847809
39.100000 -89.900000 3.848338
39.400000 -89.900000 3.868471
39.700000 -89.900000 3.883278
40.000000 -89.900000 3.894888
40.300000 -89.900000 3.890445
40.600000 -89.900000 3.875515
40.900000 -89.900000 3.863638
41.200000 -89.900000 3.884842
41.500000 -89.900000 3.902680
41.800000 -89.900000 3.920132
42.100000 -89.900000 3.934207
42.400000 -89.900000 3.938136
42.700000 -89.900000 3.942234
43.000000 -89.900000 3.928632
43.300000 -89.900000 3.928792
43.600000 -89.900000 3.930416
43.900000 -89.900000 3.938429
44.200000 -89.900000 3.933723
44.500000 -89.900000 3.933246
44.800000 -89.900000 3.922210
45.100000 -89.900000 3.920507
45.400000 -89.900000 3.911953
45.700000 -89.900000 3.907858
46.000000 -89.900000 3.904735
46.300000 -89.900000 3.894850
47.800000 -89.900000 3.853604
30.400000 -89.600000 3.798343
30.700000 -89.600000 3.807668
31.000000 -89.600000 3.819648
31.300000 -89.600000 3.836197
31.600000 -89.600000 3.838863
31.900000 -89.600000 3.839365
32.200000 -89.600000 3.834015
32.500000 -89.600000 3.824206
32.800000 -89.600000 3.820713
33.100000 -89.600000 3.825648
33.400000 -89.600000 3.839498
33.700000 -89.600000 3.867014
34.000000 -89.600000 3.902843
34.300000 -89.600000 3.925550
34.600000 -89.600000 3.937136
34.900000 -89.600000 3.933023
35.200000 -89.600000 3.919388
35.500000 -89.600000 3.901894
35.800000 -89.600000 3.887009
36.100000 -89.600000 3.882704
36.400000 -89.600000 3.876559
36.700000 -89.600000 3.865316
37.000000 -89.600000 3.860962
37.300000 -89.600000 3.854845
37.600000 -89.600000 3.853040
37.900000 -89.600000 3.853823
38.200000 -89.600000 3.856526
38.500000 -89.600000 3.853102
38.800000 -89.600000 3.853067
39.100000 -89.600000 3.850771
39.400000 -89.600000 3.863023
39.700000 -89.600000 3.877896
40.000000 -89.600000 3.889570
40.300000 -89.600000 3.878373
40.600000 -89.600000 3.865013
40.900000 -89.600000 3.857359
41.200000 -89.600000 3.881275
41.500000 -89.600000 3.905776
41.800000 -89.600000 3.927082
42.100000 -89.600000 3.946426
42.400000 -89.600000 3.954291
42.700000 -89.600000 3.953178
43.000000 -89.600000 3.944023
43.300000 -89.600000 3.943088
43.600000 -89.600000 3.941026
43.900000 -89.600000 3.951317
44.200000 -89.600000 3.942882
44.500000 -89.600000 3.936807
44.800000 -89.600000 3.927254
45.100000 -89.600000 3.924715
45.400000 -89.600000 3.915486
45.700000 -89.600000 3.910383
46.000000 -89.600000 3.906820
46.300000 -89.600000 3.900870
47.800000 -89.600000 3.827209
30.400000 -89.300000 3.814248
30.700000 -89.300000 3.814988
31.000000 -89.300000 3.828659
31.300000 -89.300000 3.851143
31.600000 -89.300000 3.855062
31.900000 -89.300000 3.848629
32.200000 -89.300000 3.843828
32.500000 -89.300000 3.832310
32.800000 -89.300000 3.826940
33.100000 -89.300000 3.828457
33.400000 -89.300000 3.838909
33.700000 -89.300000 3.862930
34.000000 -89.300000 3.900658
34.300000 -89.300000 3.926284
34.600000 -89.300000 3.936795
34.900000 -89.300000 3.938282
35.200000 -89.300000 3.927428
35.500000 -89.300000 3.907055
35.800000 -89.300000 3.891778
36.100000 -89.300000 3.883119
36.400000 -89.300000 3.876994
36.700000 -89.300000 3.865340
37.000000 -89.300000 3.861443
37.300000 -89.300000 3.856328
37.600000 -89.300000 3.857180
37.900000 -89.300000 3.854749
38.200000 -89.300000 3.858027
38.500000 -89.300000 3.854806
38.800000 -89.300000 3.856878
39.100000 -89.300000 3.854209
39.400000 -89.300000 3.860112
39.700000 -89.300000 3.873612
40.000000 -89.300000 3.883671
40.300000 -89.300000 3.874726
40.600000 -89.300000 3.859034
40.900000 -89.300000 3.853222
41.200000 -89.300000 3.880361
41.500000 -89.300000 3.906668
41.800000 -89.300000 3.934039
42.100000 -89.300000 3.957180
42.400000 -89.300000 3.968237
42.700000 -89.300000 3.962672
43.000000 -89.300000 3.955946
43.300000 -89.300000 3.951612
43.600000 -89.300000 3.948465
43.900000 -89.300000 3.957125
44.200000 -89.300000 3.950144
44.500000 -89.300000 3.940673
44.800000 -89.300000 3.933660
45.100000 -89.300000 3.930123
45.400000 -89.300000 3.920701
45.700000 -89.300000 3.915154
46.000000 -89.300000 3.912923
46.300000 -89.300000 3.907313
46.600000 -89.300000 3.900765
47.500000 -89.300000 3.839437
47.800000 -89.300000 3.815683
30.400000 -89.000000 3.819651
30.700000 -89.000000 3.819379
31.000000 -89.000000 3.833116
31.300000 -89.000000 3.861850
31.600000 -89.000000 3.869206
31.900000 -89.000000 3.864034
32.200000 -89.000000 3.859065
32.500000 -89.000000 3.848584
32.800000 -89.000000 3.841749
33.100000 -89.000000 3.842571
33.400000 -89.000000 3.848631
33.700000 -89.000000 3.869072
34.000000 -89.000000 3.900657
34.300000 -89.000000 3.924273
34.600000 -89.000000 3.931483
34.900000 -89.000000 3.936751
35.200000 -89.000000 3.926583
35.500000 -89.000000 3.904731
35.800000 -89.000000 3.893767
36.100000 -89.000000 3.887009
36.400000 -89.000000 3.877382
36.700000 -89.000000 3.871430
37.000000 -89.000000 3.866325
37.300000 -89.000000 3.863927
37.600000 -89.000000 3.865148
37.900000 -89.000000 3.857508
38.200000 -89.000000 3.859970
38.500000 -89.000000 3.853034
38.800000 -89.000000 3.858162
39.100000 -89.000000 3.855697
39.400000 -89.000000 3.856781
39.700000 -89.000000 3.868342
40.000000 -89.000000 3.875985
40.300000 -89.000000 3.871664
40.600000 -89.000000 3.855998
40.900000 -89.000000 3.854292
41.200000 -89.000000 3.875770
41.500000 -89.000000 3.901663
41.800000 -89.000000 3.938892
42.100000 -89.000000 3.964067
42.400000 -89.000000 3.977650
42.700000 -89.000000 3.970434
43.000000 -89.000000 3.961128
43.300000 -89.000000 3.956780
43.600000 -89.000000 3.953064
43.900000 -89.000000 3.956253
44.200000 -89.000000 3.952529
44.500000 -89.000000 3.945892
44.800000 -89.000000 3.940886
45.100000 -89.000000 3.936704
45.400000 -89.000000 3.926451
45.700000 -89.000000 3.924509
46.000000 -89.000000 3.918304
46.300000 -89.000000 3.915348
46.600000 -89.000000 3.900765
46.900000 -89.000000 3.885173
30.700000 -88.700000 3.821980
31.000000 -88.700000 3.834478
31.300000 -88.700000 3.863202
31.600000 -88.700000 3.876060
31.900000 -88.700000 3.877915
32.200000 -88.700000 3.873908
32.500000 -88.700000 3.866964
32.800000 -88.700000 3.861203
33.100000 -88.700000 3.862180
33.400000 -88.700000 3.865410
33.700000 -88.700000 3.882066
34.000000 -88.700000 3.903890
34.300000 -88.700000 3.919066
34.600000 -88.700000 3.919972
34.900000 -88.700000 3.921877
35.200000 -88.700000 3.916448
35.500000 -88.700000 3.898331
35.800000 -88.700000 3.892078
36.100000 -88.700000 3.889307
36.400000 -88.700000 3.880502
36.700000 -88.700000 3.875481
37.000000 -88.700000 3.871667
37.300000 -88.700000 3.868550
37.600000 -88.700000 3.869775
37.900000 -88.700000 3.859301
38.200000 -88.700000 3.858722
38.500000 -88.700000 3.851351
38.800000 -88.700000 3.855374
39.100000 -88.700000 3.854241
39.400000 -88.700000 3.852111
39.700000 -88.700000 3.860091
40.000000 -88.700000 3.865898
40.300000 -88.700000 3.864411
40.600000 -88.700000 3.854766
40.900000 -88.700000 3.856466
41.200000 -88.700000 3.871882
41.500000 -88.700000 3.897369
41.800000 -88.700000 3.941226
42.100000 -88.700000 3.967032
42.400000 -88.700000 3.978077
42.700000 -88.700000 3.975443
43.000000 -88.700000 3.961477
43.300000 -88.700000 3.959033
43.600000 -88.700000 3.952950
43.900000 -88.700000 3.954633
44.200000 -88.700000 3.954900
44.500000 -88.700000 3.950255
44.800000 -88.700000 3.947177
45.100000 -88.700000 3.942453
45.400000 -88.700000 3.934125
45.700000 -88.700000 3.933164
46.000000 -88.700000 3.925175
46.300000 -88.700000 3.923886
46.900000 -88.700000 3.885173
30.700000 -88.400000 3.824755
31.000000 -88.400000 3.832641
31.300000 -88.400000 3.860797
31.600000 -88.400000 3.876570
31.900000 -88.400000 3.886620
32.200000 -88.400000 3.883702
32.500000 -88.400000 3.881216
32.800000 -88.400000 3.875848
33.100000 -88.400000 3.879451
33.400000 -88.400000 3.881992
33.700000 -88.400000 3.897408
34.000000 -88.400000 3.908819
34.300000 -88.400000 3.911312
34.600000 -88.400000 3.903137
34.900000 -88.400000 3.901327
35.200000 -88.400000 3.896839
35.500000 -88.400000 3.891141
35.800000 -88.400000 3.892739
36.100000 -88.400000 3.893312
36.400000 -88.400000 3.884453
36.700000 -88.400000 3.876165
37.000000 -88.400000 3.869967
37.300000 -88.400000 3.869243
37.600000 -88.400000 3.868376
37.900000 -88.400000 3.859924
38.200000 -88.400000 3.856292
38.500000 -88.400000 3.848908
38.800000 -88.400000 3.853715
39.100000 -88.400000 3.851416
39.400000 -88.400000 3.848431
39.700000 -88.400000 3.850765
40.000000 -88.400000 3.857429
40.300000 -88.400000 3.856842
40.600000 -88.400000 3.855124
40.900000 -88.400000 3.859483
41.200000 -88.400000 3.873003
41.500000 -88.400000 3.896179
41.800000 -88.400000 3.936595
42.100000 -88.400000 3.965915
42.400000 -88.400000 3.972207
42.700000 -88.400000 3.977254
43.000000 -88.400000 3.960687
43.300000 -88.400000 3.960111
43.600000 -88.400000 3.953667
43.900000 -88.400000 3.951407
44.200000 -88.400000 3.954343
44.500000 -88.400000 3.950127
44.800000 -88.400000 3.949734
45.100000 -88.400000 3.947000
45.400000 -88.400000 3.942111
45.700000 -88.400000 3.941196
46.000000 -88.400000 3.933117
46.300000 -88.400000 3.930900
46.600000 -88.400000 3.913929
30.700000 -88.100000 3.833289
31.000000 -88.100000 3.833182
31.300000 -88.100000 3.855555
31.600000 -88.100000 3.874395
31.900000 -88.100000 3.887430
32.200000 -88.100000 3.886784
32.500000 -88.100000 3.892330
32.800000 -88.100000 3.888135
33.100000 -88.100000 3.891505
33.400000 -88.100000 3.894131
33.700000 -88.100000 3.905844
34.000000 -88.100000 3.908971
34.300000 -88.100000 3.898008
34.600000 -88.100000 3.883363
34.900000 -88.100000 3.878511
35.200000 -88.100000 3.878589
35.500000 -88.100000 3.887041
35.800000 -88.100000 3.890593
36.100000 -88.100000 3.893539
36.400000 -88.100000 3.886602
36.700000 -88.100000 3.872241
37.000000 -88.100000 3.865052
37.300000 -88.100000 3.863362
37.600000 -88.100000 3.862857
37.900000 -88.100000 3.857994
38.200000 -88.100000 3.852721
38.500000 -88.100000 3.847240
38.800000 -88.100000 3.851062
39.100000 -88.100000 3.848558
39.400000 -88.100000 3.848494
39.700000 -88.100000 3.848521
40.000000 -88.100000 3.856162
40.300000 -88.100000 3.855332
40.600000 -88.100000 3.856651
40.900000 -88.100000 3.861021
41.200000 -88.100000 3.878445
41.500000 -88.100000 3.898656
41.800000 -88.100000 3.934441
42.100000 -88.100000 3.955189
42.400000 -88.100000 3.966503
43.900000 -88.100000 3.950805
44.200000 -88.100000 3.942652
44.500000 -88.100000 3.948116
44.800000 -88.100000 3.946230
45.100000 -88.100000 3.948077
45.400000 -88.100000 3.946911
45.700000 -88.100000 3.947486
46.000000 -88.100000 3.941088
46.300000 -88.100000 3.932962
30.700000 -87.800000 3.837273
31.000000 -87.800000 3.837063
31.300000 -87.800000 3.850172
31.600000 -87.800000 3.871511
31.900000 -87.800000 3.882097
32.200000 -87.800000 3.884261
32.500000 -87.800000 3.895107
32.800000 -87.800000 3.890452
33.100000 -87.800000 3.894090
33.400000 -87.800000 3.896866
33.700000 -87.800000 3.903922
34.000000 -87.800000 3.901807
34.300000 -87.800000 3.883863
34.600000 -87.800000 3.865184
34.900000 -87.800000 3.862312
35.200000 -87.800000 3.864128
35.500000 -87.800000 3.879147
35.800000 -87.800000 3.885911
36.100000 -87.800000 3.893022
36.400000 -87.800000 3.882842
36.700000 -87.800000 3.868128
37.000000 -87.800000 3.858972
37.300000 -87.800000 3.857063
37.600000 -87.800000 3.854953
37.900000 -87.800000 3.851741
38.200000 -87.800000 3.850075
38.500000 -87.800000 3.843046
38.800000 -87.800000 3.850196
39.100000 -87.800000 3.851085
39.400000 -87.800000 3.853974
39.700000 -87.800000 3.856873
40.000000 -87.800000 3.863542
40.300000 -87.800000 3.864988
40.600000 -87.800000 3.859889
40.900000 -87.800000 3.863867
41.200000 -87.800000 3.884640
41.500000 -87.800000 3.904531
41.800000 -87.800000 3.930941
42.100000 -87.800000 3.945248
44.200000 -87.800000 3.939100
44.500000 -87.800000 3.937236
44.800000 -87.800000 3.934362
45.100000 -87.800000 3.945532
45.400000 -87.800000 3.946271
45.700000 -87.800000 3.948201
46.000000 -87.800000 3.942487
46.300000 -87.800000 3.929338
30.700000 -87.500000 3.840562
31.000000 -87.500000 3.840501
31.300000 -87.500000 3.848298
31.600000 -87.500000 3.863141
31.900000 -87.500000 3.876384
32.200000 -87.500000 3.880795
32.500000 -87.500000 3.890555
32.800000 -87.500000 3.884040
33.100000 -87.500000 3.885127
33.400000 -87.500000 3.889098
33.700000 -87.500000 3.892079
34.000000 -87.500000 3.885486
34.300000 -87.500000 3.869419
34.600000 -87.500000 3.853483
34.900000 -87.500000 3.851065
35.200000 -87.500000 3.857081
35.500000 -87.500000 3.872724
35.800000 -87.500000 3.876192
36.100000 -87.500000 3.885218
36.400000 -87.500000 3.873616
36.700000 -87.500000 3.858758
37.000000 -87.500000 3.854085
37.300000 -87.500000 3.852277
37.600000 -87.500000 3.849410
37.900000 -87.500000 3.844138
38.200000 -87.500000 3.846893
38.500000 -87.500000 3.837281
38.800000 -87.500000 3.849654
39.100000 -87.500000 3.855008
39.400000 -87.500000 3.859450
39.700000 -87.500000 3.871123
40.000000 -87.500000 3.877571
40.300000 -87.500000 3.876013
40.600000 -87.500000 3.864518
40.900000 -87.500000 3.868372
41.200000 -87.500000 3.885931
41.500000 -87.500000 3.906338
42.100000 -87.500000 3.936216
44.200000 -87.500000 3.939023
44.500000 -87.500000 3.927873
44.800000 -87.500000 3.927559
45.100000 -87.500000 3.942858
45.400000 -87.500000 3.943719
45.700000 -87.500000 3.940104
46.000000 -87.500000 3.929706
46.300000 -87.500000 3.914287
30.700000 -87.200000 3.837761
31.000000 -87.200000 3.841774
31.300000 -87.200000 3.850047
31.600000 -87.200000 3.855078
31.900000 -87.200000 3.873544
32.200000 -87.200000 3.877038
32.500000 -87.200000 3.880801
32.800000 -87.200000 3.870626
33.100000 -87.200000 3.870985
33.400000 -87.200000 3.872405
33.700000 -87.200000 3.876137
34.000000 -87.200000 3.868453
34.300000 -87.200000 3.860760
34.600000 -87.200000 3.844377
34.900000 -87.200000 3.846892
35.200000 -87.200000 3.850950
35.500000 -87.200000 3.866629
35.800000 -87.200000 3.870885
36.100000 -87.200000 3.875337
36.400000 -87.200000 3.868866
36.700000 -87.200000 3.857865
37.000000 -87.200000 3.849028
37.300000 -87.200000 3.846566
37.600000 -87.200000 3.843815
37.900000 -87.200000 3.836947
38.200000 -87.200000 3.841771
38.500000 -87.200000 3.832303
38.800000 -87.200000 3.849496
39.100000 -87.200000 3.860409
39.400000 -87.200000 3.864389
39.700000 -87.200000 3.883348
40.000000 -87.200000 3.892972
40.300000 -87.200000 3.891516
40.600000 -87.200000 3.876143
40.900000 -87.200000 3.879862
41.200000 -87.200000 3.888301
41.500000 -87.200000 3.907071
44.200000 -87.200000 3.954767
44.500000 -87.200000 3.919385
45.700000 -87.200000 3.922702
46.000000 -87.200000 3.903565
46.300000 -87.200000 3.882929
30.700000 -86.900000 3.838641
31.000000 -86.900000 3.841707
31.300000 -86.900000 3.855808
31.600000 -86.900000 3.851057
31.900000 -86.900000 3.877532
