32.800000 -101.600000 4.019237
33.100000 -101.600000 4.014082
33.400000 -101.600000 4.005710
33.700000 -101.600000 3.993949
34.000000 -101.600000 3.981743
34.300000 -101.600000 3.969361
34.600000 -101.600000 3.955199
34.900000 -101.600000 3.943415
35.200000 -101.600000 3.937443
35.500000 -101.600000 3.944768
35.800000 -101.600000 3.961008
36.100000 -101.600000 3.981231
36.400000 -101.600000 3.997733
36.700000 -101.600000 4.008769
37.000000 -101.600000 4.014410
37.300000 -101.600000 4.014645
37.600000 -101.600000 4.013495
37.900000 -101.600000 4.011363
38.200000 -101.600000 4.008466
38.500000 -101.600000 4.001844
38.800000 -101.600000 3.994805
39.100000 -101.600000 3.990915
39.400000 -101.600000 3.989829
39.700000 -101.600000 3.990591
40.000000 -101.600000 3.993453
40.300000 -101.600000 4.000344
40.600000 -101.600000 4.009851
40.900000 -101.600000 4.017695
41.200000 -101.600000 4.022280
41.500000 -101.600000 4.022394
41.800000 -101.600000 4.017432
42.100000 -101.600000 4.008515
42.400000 -101.600000 3.999055
42.700000 -101.600000 3.994216
43.000000 -101.600000 3.991723
43.300000 -101.600000 3.995034
43.600000 -101.600000 4.008910
43.900000 -101.600000 4.028311
44.200000 -101.600000 4.046389
44.500000 -101.600000 4.056804
44.800000 -101.600000 4.061508
45.100000 -101.600000 4.063510
45.400000 -101.600000 4.064598
45.700000 -101.600000 4.062839
46.000000 -101.600000 4.057555
46.300000 -101.600000 4.050962
46.600000 -101.600000 4.045317
46.900000 -101.600000 4.043600
47.200000 -101.600000 4.045679
47.500000 -101.600000 4.045389
47.800000 -101.600000 4.045250
48.100000 -101.600000 4.043594
48.400000 -101.600000 4.048376
48.700000 -101.600000 4.052272
29.800000 -101.300000 3.965657
30.100000 -101.300000 3.968915
30.400000 -101.300000 3.975446
30.700000 -101.300000 3.984859
31.000000 -101.300000 3.999064
31.300000 -101.300000 4.014329
31.600000 -101.300000 4.025429
31.900000 -101.300000 4.031128
32.200000 -101.300000 4.032441
32.500000 -101.300000 4.033331
32.800000 -101.300000 4.032471
33.100000 -101.300000 4.028540
33.400000 -101.300000 4.020680
33.700000 -101.300000 4.008547
34.000000 -101.300000 3.994220
34.300000 -101.300000 3.976519
34.600000 -101.300000 3.956763
34.900000 -101.300000 3.939031
35.200000 -101.300000 3.930384
35.500000 -101.300000 3.936228
35.800000 -101.300000 3.952513
36.100000 -101.300000 3.973027
36.400000 -101.300000 3.991606
36.700000 -101.300000 4.006714
37.000000 -101.300000 4.017982
37.300000 -101.300000 4.023072
37.600000 -101.300000 4.025228
37.900000 -101.300000 4.024823
38.200000 -101.300000 4.022561
38.500000 -101.300000 4.016909
38.800000 -101.300000 4.011244
39.100000 -101.300000 4.006419
39.400000 -101.300000 4.002739
39.700000 -101.300000 3.998866
40.000000 -101.300000 3.998693
40.300000 -101.300000 4.004327
40.600000 -101.300000 4.015111
40.900000 -101.300000 4.024434
41.200000 -101.300000 4.030396
41.500000 -101.300000 4.031121
41.800000 -101.300000 4.027403
42.100000 -101.300000 4.018782
42.400000 -101.300000 4.008029
42.700000 -101.300000 4.004399
43.000000 -101.300000 4.002870
43.300000 -101.300000 4.008494
43.600000 -101.300000 4.020868
43.900000 -101.300000 4.040348
44.200000 -101.300000 4.058892
44.500000 -101.300000 4.070927
44.800000 -101.300000 4.075527
45.100000 -101.300000 4.076605
45.400000 -101.300000 4.075282
45.700000 -101.300000 4.070612
46.000000 -101.300000 4.065299
46.300000 -101.300000 4.059037
46.600000 -101.300000 4.054481
46.900000 -101.300000 4.052695
47.200000 -101.300000 4.052707
47.500000 -101.300000 4.053352
48.100000 -101.300000 4.047519
48.400000 -101.300000 4.050269
48.700000 -101.300000 4.052650
29.500000 -101.000000 3.966927
29.800000 -101.000000 3.969550
30.100000 -101.000000 3.974244
30.400000 -101.000000 3.981711
30.700000 -101.000000 3.989650
31.000000 -101.000000 4.001106
31.300000 -101.000000 4.014384
31.600000 -101.000000 4.024082
31.900000 -101.000000 4.029776
32.200000 -101.000000 4.032900
32.500000 -101.000000 4.036287
32.800000 -101.000000 4.038521
33.100000 -101.000000 4.037148
33.400000 -101.000000 4.031880
33.700000 -101.000000 4.020015
34.000000 -101.000000 4.004081
34.300000 -101.000000 3.983577
34.600000 -101.000000 3.962219
34.900000 -101.000000 3.942606
35.200000 -101.000000 3.932072
35.500000 -101.000000 3.934944
35.800000 -101.000000 3.948741
36.100000 -101.000000 3.967448
36.400000 -101.000000 3.986565
36.700000 -101.000000 4.004278
37.000000 -101.000000 4.019854
37.300000 -101.000000 4.029227
37.600000 -101.000000 4.034380
37.900000 -101.000000 4.035725
38.200000 -101.000000 4.034678
38.500000 -101.000000 4.031452
38.800000 -101.000000 4.027102
39.100000 -101.000000 4.021618
39.400000 -101.000000 4.016165
39.700000 -101.000000 4.009543
40.000000 -101.000000 4.006578
40.300000 -101.000000 4.008848
40.600000 -101.000000 4.019210
40.900000 -101.000000 4.029346
41.200000 -101.000000 4.036818
41.500000 -101.000000 4.038600
41.800000 -101.000000 4.036199
42.100000 -101.000000 4.028184
42.400000 -101.000000 4.018720
42.700000 -101.000000 4.013716
43.000000 -101.000000 4.015406
43.300000 -101.000000 4.020395
43.600000 -101.000000 4.032408
43.900000 -101.000000 4.050367
44.200000 -101.000000 4.069804
44.500000 -101.000000 4.083028
44.800000 -101.000000 4.088765
45.100000 -101.000000 4.089859
45.400000 -101.000000 4.085635
45.700000 -101.000000 4.079645
46.000000 -101.000000 4.073330
46.300000 -101.000000 4.068103
46.600000 -101.000000 4.065609
46.900000 -101.000000 4.064665
47.200000 -101.000000 4.063477
47.500000 -101.000000 4.064242
47.800000 -101.000000 4.060750
48.100000 -101.000000 4.056129
48.400000 -101.000000 4.054567
48.700000 -101.000000 4.056729
29.200000 -100.700000 3.970003
29.500000 -100.700000 3.970378
29.800000 -100.700000 3.974448
30.100000 -100.700000 3.982493
30.400000 -100.700000 3.990944
30.700000 -100.700000 3.999812
31.000000 -100.700000 4.009338
31.300000 -100.700000 4.019773
31.600000 -100.700000 4.025277
31.900000 -100.700000 4.027608
32.200000 -100.700000 4.028832
32.500000 -100.700000 4.032253
32.800000 -100.700000 4.036945
33.100000 -100.700000 4.039543
33.400000 -100.700000 4.038165
33.700000 -100.700000 4.028520
34.000000 -100.700000 4.012828
34.300000 -100.700000 3.991837
34.600000 -100.700000 3.970832
34.900000 -100.700000 3.951858
35.200000 -100.700000 3.941551
35.500000 -100.700000 3.942004
35.800000 -100.700000 3.952498
36.100000 -100.700000 3.968335
36.400000 -100.700000 3.986539
36.700000 -100.700000 4.004732
37.000000 -100.700000 4.022364
37.300000 -100.700000 4.034273
37.600000 -100.700000 4.041992
37.900000 -100.700000 4.044615
38.200000 -100.700000 4.045081
38.500000 -100.700000 4.043584
38.800000 -100.700000 4.040993
39.100000 -100.700000 4.035606
39.400000 -100.700000 4.028934
39.700000 -100.700000 4.020106
40.000000 -100.700000 4.014418
40.300000 -100.700000 4.013648
40.600000 -100.700000 4.021230
40.900000 -100.700000 4.030755
41.200000 -100.700000 4.039083
41.500000 -100.700000 4.042938
41.800000 -100.700000 4.043069
42.100000 -100.700000 4.036263
42.400000 -100.700000 4.028287
42.700000 -100.700000 4.023337
43.000000 -100.700000 4.025526
43.300000 -100.700000 4.030112
43.600000 -100.700000 4.040765
43.900000 -100.700000 4.057466
44.200000 -100.700000 4.076056
44.500000 -100.700000 4.090296
44.800000 -100.700000 4.098256
45.100000 -100.700000 4.098932
45.400000 -100.700000 4.094551
45.700000 -100.700000 4.087313
46.000000 -100.700000 4.080552
46.300000 -100.700000 4.077467
46.600000 -100.700000 4.078353
46.900000 -100.700000 4.079521
47.200000 -100.700000 4.079529
47.500000 -100.700000 4.077030
47.800000 -100.700000 4.076043
48.100000 -100.700000 4.067364
48.400000 -100.700000 4.063904
48.700000 -100.700000 4.064978
28.900000 -100.400000 3.978593
29.200000 -100.400000 3.975021
29.500000 -100.400000 3.975457
29.800000 -100.400000 3.981914
30.100000 -100.400000 3.992072
30.400000 -100.400000 4.002587
30.700000 -100.400000 4.012299
31.000000 -100.400000 4.021032
31.300000 -100.400000 4.028291
31.600000 -100.400000 4.029711
31.900000 -100.400000 4.026919
32.200000 -100.400000 4.024192
32.500000 -100.400000 4.025274
32.800000 -100.400000 4.030688
33.100000 -100.400000 4.036220
33.400000 -100.400000 4.039005
33.700000 -100.400000 4.034211
34.000000 -100.400000 4.022032
34.300000 -100.400000 4.004444
34.600000 -100.400000 3.984565
34.900000 -100.400000 3.966727
35.200000 -100.400000 3.955864
35.500000 -100.400000 3.954905
35.800000 -100.400000 3.962983
36.100000 -100.400000 3.976904
36.400000 -100.400000 3.993545
36.700000 -100.400000 4.010292
37.000000 -100.400000 4.026428
37.300000 -100.400000 4.038697
37.600000 -100.400000 4.048554
37.900000 -100.400000 4.052987
38.200000 -100.400000 4.055267
38.500000 -100.400000 4.054658
38.800000 -100.400000 4.053131
39.100000 -100.400000 4.047792
39.400000 -100.400000 4.040018
39.700000 -100.400000 4.029571
40.000000 -100.400000 4.021608
40.300000 -100.400000 4.017612
40.600000 -100.400000 4.021548
40.900000 -100.400000 4.029622
41.200000 -100.400000 4.038936
41.500000 -100.400000 4.045000
41.800000 -100.400000 4.047487
42.100000 -100.400000 4.043175
42.400000 -100.400000 4.036328
42.700000 -100.400000 4.031624
43.000000 -100.400000 4.032308
43.300000 -100.400000 4.036658
43.600000 -100.400000 4.045519
43.900000 -100.400000 4.060842
44.200000 -100.400000 4.077548
44.500000 -100.400000 4.092540
44.800000 -100.400000 4.101647
45.100000 -100.400000 4.103656
45.400000 -100.400000 4.099557
45.700000 -100.400000 4.092502
46.000000 -100.400000 4.087218
46.300000 -100.400000 4.086722
46.600000 -100.400000 4.091604
46.900000 -100.400000 4.096908
47.200000 -100.400000 4.097504
47.500000 -100.400000 4.094616
47.800000 -100.400000 4.090608
48.100000 -100.400000 4.082741
48.400000 -100.400000 4.077456
48.700000 -100.400000 4.075633
28.000000 -100.100000 3.989934
28.300000 -100.100000 3.990024
28.600000 -100.100000 3.986012
28.900000 -100.100000 3.980767
29.200000 -100.100000 3.978163
29.500000 -100.100000 3.980167
29.800000 -100.100000 3.989168
30.100000 -100.100000 4.001577
30.400000 -100.100000 4.014489
30.700000 -100.100000 4.025010
31.000000 -100.100000 4.032838
31.300000 -100.100000 4.037936
31.600000 -100.100000 4.035734
31.900000 -100.100000 4.028391
32.200000 -100.100000 4.021371
32.500000 -100.100000 4.019283
32.800000 -100.100000 4.023767
33.100000 -100.100000 4.030682
33.400000 -100.100000 4.037823
33.700000 -100.100000 4.039425
34.000000 -100.100000 4.033672
34.300000 -100.100000 4.020006
34.600000 -100.100000 4.001631
34.900000 -100.100000 3.983871
35.200000 -100.100000 3.973733
35.500000 -100.100000 3.973013
35.800000 -100.100000 3.980076
36.100000 -100.100000 3.992309
36.400000 -100.100000 4.006473
36.700000 -100.100000 4.020981
37.000000 -100.100000 4.034233
37.300000 -100.100000 4.044970
37.600000 -100.100000 4.054489
37.900000 -100.100000 4.059901
38.200000 -100.100000 4.063324
38.500000 -100.100000 4.063731
38.800000 -100.100000 4.062601
39.100000 -100.100000 4.057897
39.400000 -100.100000 4.049498
39.700000 -100.100000 4.038474
40.000000 -100.100000 4.028838
40.300000 -100.100000 4.022839
40.600000 -100.100000 4.023714
40.900000 -100.100000 4.030268
41.200000 -100.100000 4.039962
41.500000 -100.100000 4.047731
41.800000 -100.100000 4.051919
42.100000 -100.100000 4.049842
42.400000 -100.100000 4.043455
42.700000 -100.100000 4.038110
43.000000 -100.100000 4.035827
43.300000 -100.100000 4.041002
43.600000 -100.100000 4.048385
43.900000 -100.100000 4.062872
44.200000 -100.100000 4.077069
44.500000 -100.100000 4.091714
44.800000 -100.100000 4.101082
45.100000 -100.100000 4.104190
45.400000 -100.100000 4.101749
45.700000 -100.100000 4.095744
46.000000 -100.100000 4.092828
46.300000 -100.100000 4.096068
46.600000 -100.100000 4.104341
46.900000 -100.100000 4.112691
47.200000 -100.100000 4.115471
47.500000 -100.100000 4.113571
47.800000 -100.100000 4.108994
48.100000 -100.100000 4.100115
48.400000 -100.100000 4.092185
48.700000 -100.100000 4.086942
28.000000 -99.800000 3.979900
28.300000 -99.800000 3.985371
28.600000 -99.800000 3.985419
28.900000 -99.800000 3.982880
29.200000 -99.800000 3.981565
29.500000 -99.800000 3.984680
29.800000 -99.800000 3.995164
30.100000 -99.800000 4.009733
30.400000 -99.800000 4.024229
30.700000 -99.800000 4.035622
31.000000 -99.800000 4.043482
31.300000 -99.800000 4.048117
31.600000 -99.800000 4.043985
31.900000 -99.800000 4.034117
32.200000 -99.800000 4.024922
32.500000 -99.800000 4.020566
32.800000 -99.800000 4.023025
33.100000 -99.800000 4.027910
33.400000 -99.800000 4.036530
33.700000 -99.800000 4.042647
34.000000 -99.800000 4.042373
34.300000 -99.800000 4.032719
34.600000 -99.800000 4.015733
34.900000 -99.800000 3.999115
35.200000 -99.800000 3.989515
35.500000 -99.800000 3.989423
35.800000 -99.800000 3.996450
36.100000 -99.800000 4.008457
36.400000 -99.800000 4.021802
36.700000 -99.800000 4.033700
37.000000 -99.800000 4.043872
37.300000 -99.800000 4.051645
37.600000 -99.800000 4.059830
37.900000 -99.800000 4.065043
38.200000 -99.800000 4.069007
38.500000 -99.800000 4.070371
38.800000 -99.800000 4.070078
39.100000 -99.800000 4.066536
39.400000 -99.800000 4.059089
39.700000 -99.800000 4.048954
40.000000 -99.800000 4.038248
40.300000 -99.800000 4.030759
40.600000 -99.800000 4.029998
40.900000 -99.800000 4.035891
41.200000 -99.800000 4.045096
41.500000 -99.800000 4.052475
41.800000 -99.800000 4.057242
42.100000 -99.800000 4.055949
42.400000 -99.800000 4.050198
42.700000 -99.800000 4.042093
43.000000 -99.800000 4.038950
43.300000 -99.800000 4.042264
43.600000 -99.800000 4.052186
43.900000 -99.800000 4.064564
44.200000 -99.800000 4.078214
44.500000 -99.800000 4.089817
44.800000 -99.800000 4.098609
45.100000 -99.800000 4.103885
45.400000 -99.800000 4.101736
45.700000 -99.800000 4.100101
46.000000 -99.800000 4.099419
46.300000 -99.800000 4.105213
46.600000 -99.800000 4.115511
46.900000 -99.800000 4.126196
47.200000 -99.800000 4.130939
47.500000 -99.800000 4.131003
47.800000 -99.800000 4.126965
48.100000 -99.800000 4.118095
48.400000 -99.800000 4.105664
48.700000 -99.800000 4.098901
27.400000 -99.500000 3.932890
27.700000 -99.500000 3.948096
28.000000 -99.500000 3.964826
28.300000 -99.500000 3.975547
28.600000 -99.500000 3.979538
28.900000 -99.500000 3.980802
29.200000 -99.500000 3.983142
29.500000 -99.500000 3.988942
29.800000 -99.500000 4.000588
30.100000 -99.500000 4.016030
30.400000 -99.500000 4.031016
30.700000 -99.500000 4.042466
31.000000 -99.500000 4.049366
31.300000 -99.500000 4.052584
31.600000 -99.500000 4.048366
31.900000 -99.500000 4.039327
32.200000 -99.500000 4.031479
32.500000 -99.500000 4.025872
32.800000 -99.500000 4.026700
33.100000 -99.500000 4.028787
33.400000 -99.500000 4.036107
33.700000 -99.500000 4.042483
34.000000 -99.500000 4.044277
34.300000 -99.500000 4.037522
34.600000 -99.500000 4.022463
34.900000 -99.500000 4.007504
35.200000 -99.500000 3.999545
35.500000 -99.500000 4.000801
35.800000 -99.500000 4.009233
36.100000 -99.500000 4.021870
36.400000 -99.500000 4.034945
36.700000 -99.500000 4.045620
37.000000 -99.500000 4.053651
37.300000 -99.500000 4.059030
37.600000 -99.500000 4.064047
37.900000 -99.500000 4.067238
38.200000 -99.500000 4.070726
38.500000 -99.500000 4.073462
38.800000 -99.500000 4.074737
39.100000 -99.500000 4.073030
39.400000 -99.500000 4.068356
39.700000 -99.500000 4.060273
40.000000 -99.500000 4.050064
40.300000 -99.500000 4.042014
40.600000 -99.500000 4.041285
40.900000 -99.500000 4.047426
41.200000 -99.500000 4.055742
41.500000 -99.500000 4.061708
41.800000 -99.500000 4.064329
42.100000 -99.500000 4.063513
42.400000 -99.500000 4.055203
42.700000 -99.500000 4.044908
43.000000 -99.500000 4.040690
43.300000 -99.500000 4.045286
43.600000 -99.500000 4.057493
43.900000 -99.500000 4.069965
44.200000 -99.500000 4.082587
44.500000 -99.500000 4.091988
44.800000 -99.500000 4.098147
45.100000 -99.500000 4.102915
45.400000 -99.500000 4.103318
45.700000 -99.500000 4.104418
46.000000 -99.500000 4.107464
46.300000 -99.500000 4.114871
46.600000 -99.500000 4.126849
46.900000 -99.500000 4.137436
47.200000 -99.500000 4.144634
47.500000 -99.500000 4.145999
47.800000 -99.500000 4.143396
48.100000 -99.500000 4.133357
48.400000 -99.500000 4.118379
48.700000 -99.500000 4.108399
27.400000 -99.200000 3.917920
27.700000 -99.200000 3.933070
28.000000 -99.200000 3.949859
28.300000 -99.200000 3.963336
28.600000 -99.200000 3.972399
28.900000 -99.200000 3.978520
29.200000 -99.200000 3.984973
29.500000 -99.200000 3.993044
29.800000 -99.200000 4.005192
30.100000 -99.200000 4.020217
30.400000 -99.200000 4.034295
30.700000 -99.200000 4.045385
31.000000 -99.200000 4.051108
31.300000 -99.200000 4.052682
31.600000 -99.200000 4.049372
31.900000 -99.200000 4.043417
32.200000 -99.200000 4.039094
32.500000 -99.200000 4.035131
32.800000 -99.200000 4.036135
33.100000 -99.200000 4.035766
33.400000 -99.200000 4.038131
33.700000 -99.200000 4.039560
34.000000 -99.200000 4.038947
34.300000 -99.200000 4.034182
34.600000 -99.200000 4.022426
34.900000 -99.200000 4.011498
35.200000 -99.200000 4.004761
35.500000 -99.200000 4.006456
35.800000 -99.200000 4.015445
36.100000 -99.200000 4.029746
36.400000 -99.200000 4.044069
36.700000 -99.200000 4.054035
37.000000 -99.200000 4.060767
37.300000 -99.200000 4.064507
37.600000 -99.200000 4.068010
37.900000 -99.200000 4.069042
38.200000 -99.200000 4.071304
38.500000 -99.200000 4.073442
38.800000 -99.200000 4.075684
39.100000 -99.200000 4.075640
39.400000 -99.200000 4.074836
39.700000 -99.200000 4.070229
40.000000 -99.200000 4.062412
40.300000 -99.200000 4.054986
40.600000 -99.200000 4.054665
40.900000 -99.200000 4.060921
41.200000 -99.200000 4.068880
41.500000 -99.200000 4.073696
41.800000 -99.200000 4.074676
42.100000 -99.200000 4.072422
42.400000 -99.200000 4.059856
42.700000 -99.200000 4.047744
43.000000 -99.200000 4.043338
43.300000 -99.200000 4.050765
43.600000 -99.200000 4.065893
43.900000 -99.200000 4.079907
44.200000 -99.200000 4.090275
44.500000 -99.200000 4.096591
44.800000 -99.200000 4.100440
45.100000 -99.200000 4.102521
45.400000 -99.200000 4.105008
45.700000 -99.200000 4.109412
46.000000 -99.200000 4.116410
46.300000 -99.200000 4.125342
46.600000 -99.200000 4.136884
46.900000 -99.200000 4.148657
47.200000 -99.200000 4.155996
47.500000 -99.200000 4.159891
47.800000 -99.200000 4.156646
48.100000 -99.200000 4.146439
48.400000 -99.200000 4.128582
48.700000 -99.200000 4.116392
26.800000 -98.900000 3.875515
27.100000 -98.900000 3.884508
27.400000 -98.900000 3.898096
27.700000 -98.900000 3.915231
28.000000 -98.900000 3.933493
28.300000 -98.900000 3.950095
28.600000 -98.900000 3.963483
28.900000 -98.900000 3.974079
29.200000 -98.900000 3.985239
29.500000 -98.900000 3.996028
29.800000 -98.900000 4.008523
30.100000 -98.900000 4.021336
30.400000 -98.900000 4.033882
30.700000 -98.900000 4.043440
31.000000 -98.900000 4.047204
31.300000 -98.900000 4.047241
31.600000 -98.900000 4.045846
31.900000 -98.900000 4.043503
32.200000 -98.900000 4.042672
32.500000 -98.900000 4.041425
32.800000 -98.900000 4.043456
33.100000 -98.900000 4.042189
33.400000 -98.900000 4.039847
33.700000 -98.900000 4.035380
34.000000 -98.900000 4.031062
34.300000 -98.900000 4.027534
34.600000 -98.900000 4.021670
34.900000 -98.900000 4.015883
35.200000 -98.900000 4.011844
35.500000 -98.900000 4.014100
35.800000 -98.900000 4.023478
36.100000 -98.900000 4.037522
36.400000 -98.900000 4.050764
36.700000 -98.900000 4.060127
37.000000 -98.900000 4.065799
37.300000 -98.900000 4.069151
37.600000 -98.900000 4.070899
37.900000 -98.900000 4.070503
38.200000 -98.900000 4.070555
38.500000 -98.900000 4.071421
38.800000 -98.900000 4.073540
39.100000 -98.900000 4.075109
39.400000 -98.900000 4.078028
39.700000 -98.900000 4.077303
40.000000 -98.900000 4.073886
40.300000 -98.900000 4.068272
40.600000 -98.900000 4.068528
40.900000 -98.900000 4.073246
41.200000 -98.900000 4.081116
41.500000 -98.900000 4.087100
41.800000 -98.900000 4.087962
42.100000 -98.900000 4.080578
42.400000 -98.900000 4.063581
42.700000 -98.900000 4.049438
43.000000 -98.900000 4.044881
43.300000 -98.900000 4.056904
43.600000 -98.900000 4.073664
43.900000 -98.900000 4.089919
44.200000 -98.900000 4.098344
44.500000 -98.900000 4.102603
44.800000 -98.900000 4.103132
45.100000 -98.900000 4.103884
45.400000 -98.900000 4.109015
45.700000 -98.900000 4.116306
46.000000 -98.900000 4.125940
46.300000 -98.900000 4.136152
46.600000 -98.900000 4.146845
46.900000 -98.900000 4.158044
47.200000 -98.900000 4.165829
47.500000 -98.900000 4.169818
47.800000 -98.900000 4.167655
48.100000 -98.900000 4.156873
48.400000 -98.900000 4.138393
48.700000 -98.900000 4.124192
26.800000 -98.600000 3.864342
27.100000 -98.600000 3.871768
27.400000 -98.600000 3.883422
27.700000 -98.600000 3.900079
28.000000 -98.600000 3.918555
28.300000 -98.600000 3.936128
28.600000 -98.600000 3.953535
28.900000 -98.600000 3.967981
29.200000 -98.600000 3.982372
29.500000 -98.600000 3.994267
29.800000 -98.600000 4.006989
30.100000 -98.600000 4.018472
30.400000 -98.600000 4.029002
30.700000 -98.600000 4.037061
31.000000 -98.600000 4.039613
31.300000 -98.600000 4.040420
31.600000 -98.600000 4.040515
31.900000 -98.600000 4.041629
32.200000 -98.600000 4.043902
32.500000 -98.600000 4.046765
32.800000 -98.600000 4.049358
33.100000 -98.600000 4.047105
33.400000 -98.600000 4.040691
33.700000 -98.600000 4.031837
34.000000 -98.600000 4.025324
34.300000 -98.600000 4.023813
34.600000 -98.600000 4.025300
34.900000 -98.600000 4.026811
35.200000 -98.600000 4.027081
35.500000 -98.600000 4.029294
35.800000 -98.600000 4.036192
36.100000 -98.600000 4.046503
36.400000 -98.600000 4.057000
36.700000 -98.600000 4.064379
37.000000 -98.600000 4.069132
37.300000 -98.600000 4.072291
37.600000 -98.600000 4.073771
37.900000 -98.600000 4.072282
38.200000 -98.600000 4.069801
38.500000 -98.600000 4.067229
38.800000 -98.600000 4.067350
39.100000 -98.600000 4.069242
39.400000 -98.600000 4.075980
39.700000 -98.600000 4.081055
40.000000 -98.600000 4.083761
40.300000 -98.600000 4.081033
40.600000 -98.600000 4.080885
40.900000 -98.600000 4.082822
41.200000 -98.600000 4.089793
41.500000 -98.600000 4.096410
41.800000 -98.600000 4.098120
42.100000 -98.600000 4.085976
42.400000 -98.600000 4.067078
42.700000 -98.600000 4.049692
43.000000 -98.600000 4.047481
43.300000 -98.600000 4.061152
43.600000 -98.600000 4.079334
43.900000 -98.600000 4.095610
44.200000 -98.600000 4.104711
44.500000 -98.600000 4.106511
44.800000 -98.600000 4.105736
45.100000 -98.600000 4.107055
45.400000 -98.600000 4.113667
45.700000 -98.600000 4.124846
46.000000 -98.600000 4.136150
46.300000 -98.600000 4.147527
46.600000 -98.600000 4.156617
46.900000 -98.600000 4.165695
47.200000 -98.600000 4.171026
47.500000 -98.600000 4.175319
47.800000 -98.600000 4.174764
48.100000 -98.600000 4.165591
48.400000 -98.600000 4.146727
48.700000 -98.600000 4.132627
26.500000 -98.300000 3.854223
26.800000 -98.300000 3.853406
27.100000 -98.300000 3.860050
27.400000 -98.300000 3.869640
27.700000 -98.300000 3.887085
28.000000 -98.300000 3.905075
28.300000 -98.300000 3.923567
28.600000 -98.300000 3.943099
28.900000 -98.300000 3.960508
29.200000 -98.300000 3.976613
29.500000 -98.300000 3.988819
29.800000 -98.300000 4.000779
30.100000 -98.300000 4.011010
30.400000 -98.300000 4.020025
30.700000 -98.300000 4.026165
31.000000 -98.300000 4.028639
31.300000 -98.300000 4.031312
31.600000 -98.300000 4.033521
31.900000 -98.300000 4.036747
32.200000 -98.300000 4.040581
32.500000 -98.300000 4.046184
32.800000 -98.300000 4.049880
33.100000 -98.300000 4.047763
33.400000 -98.300000 4.040191
33.700000 -98.300000 4.029908
34.000000 -98.300000 4.023901
34.300000 -98.300000 4.025909
34.600000 -98.300000 4.034366
34.900000 -98.300000 4.042613
35.200000 -98.300000 4.046800
35.500000 -98.300000 4.048865
35.800000 -98.300000 4.051842
36.100000 -98.300000 4.056236
36.400000 -98.300000 4.061631
36.700000 -98.300000 4.066195
37.000000 -98.300000 4.069810
37.300000 -98.300000 4.073232
37.600000 -98.300000 4.075507
37.900000 -98.300000 4.073911
38.200000 -98.300000 4.069134
38.500000 -98.300000 4.063309
38.800000 -98.300000 4.061066
39.100000 -98.300000 4.062941
39.400000 -98.300000 4.071800
39.700000 -98.300000 4.081707
40.000000 -98.300000 4.089127
40.300000 -98.300000 4.089182
40.600000 -98.300000 4.088156
40.900000 -98.300000 4.087750
41.200000 -98.300000 4.093135
41.500000 -98.300000 4.100556
41.800000 -98.300000 4.102828
42.100000 -98.300000 4.089793
42.400000 -98.300000 4.068581
42.700000 -98.300000 4.049661
43.000000 -98.300000 4.048542
43.300000 -98.300000 4.061987
43.600000 -98.300000 4.080897
43.900000 -98.300000 4.096311
44.200000 -98.300000 4.106139
44.500000 -98.300000 4.108875
44.800000 -98.300000 4.106766
45.100000 -98.300000 4.109403
45.400000 -98.300000 4.117517
45.700000 -98.300000 4.131721
46.000000 -98.300000 4.145961
46.300000 -98.300000 4.157365
46.600000 -98.300000 4.164633
46.900000 -98.300000 4.167794
47.200000 -98.300000 4.170254
47.500000 -98.300000 4.174132
47.800000 -98.300000 4.173958
48.100000 -98.300000 4.167896
48.400000 -98.300000 4.151527
48.700000 -98.300000 4.138420
27.100000 -98.000000 3.850786
27.400000 -98.000000 3.860159
27.700000 -98.000000 3.878448
28.000000 -98.000000 3.896484
28.300000 -98.000000 3.915497
28.600000 -98.000000 3.935382
28.900000 -98.000000 3.953778
29.200000 -98.000000 3.969697
29.500000 -98.000000 3.981042
29.800000 -98.000000 3.991455
30.100000 -98.000000 3.999926
30.400000 -98.000000 4.006914
30.700000 -98.000000 4.011626
31.000000 -98.000000 4.015377
31.300000 -98.000000 4.020014
31.600000 -98.000000 4.024229
31.900000 -98.000000 4.028896
32.200000 -98.000000 4.034122
32.500000 -98.000000 4.040636
32.800000 -98.000000 4.045645
33.100000 -98.000000 4.045262
33.400000 -98.000000 4.039750
33.700000 -98.000000 4.030631
34.000000 -98.000000 4.026661
34.300000 -98.000000 4.032385
34.600000 -98.000000 4.045413
34.900000 -98.000000 4.058535
35.200000 -98.000000 4.065559
35.500000 -98.000000 4.067286
35.800000 -98.000000 4.066395
36.100000 -98.000000 4.065607
36.400000 -98.000000 4.066492
36.700000 -98.000000 4.067720
37.000000 -98.000000 4.069465
37.300000 -98.000000 4.073436
37.600000 -98.000000 4.077790
37.900000 -98.000000 4.077133
38.200000 -98.000000 4.071713
38.500000 -98.000000 4.062532
38.800000 -98.000000 4.056784
39.100000 -98.000000 4.055860
39.400000 -98.000000 4.064196
39.700000 -98.000000 4.076442
40.000000 -98.000000 4.086605
40.300000 -98.000000 4.089273
40.600000 -98.000000 4.088451
40.900000 -98.000000 4.088051
41.200000 -98.000000 4.092763
41.500000 -98.000000 4.099562
41.800000 -98.000000 4.100755
42.100000 -98.000000 4.089381
42.400000 -98.000000 4.068236
42.700000 -98.000000 4.050523
43.000000 -98.000000 4.049144
43.300000 -98.000000 4.060516
43.600000 -98.000000 4.078905
43.900000 -98.000000 4.094159
44.200000 -98.000000 4.104180
44.500000 -98.000000 4.108080
44.800000 -98.000000 4.107205
45.100000 -98.000000 4.109660
45.400000 -98.000000 4.119606
45.700000 -98.000000 4.136606
46.000000 -98.000000 4.152966
46.300000 -98.000000 4.164633
46.600000 -98.000000 4.169063
46.900000 -98.000000 4.166736
47.200000 -98.000000 4.165029
47.500000 -98.000000 4.166236
47.800000 -98.000000 4.166693
48.100000 -98.000000 4.163518
48.400000 -98.000000 4.151995
48.700000 -98.000000 4.141687
27.100000 -97.700000 3.845827
27.400000 -97.700000 3.853519
27.700000 -97.700000 3.872368
28.000000 -97.700000 3.894671
28.300000 -97.700000 3.911939
28.600000 -97.700000 3.931882
28.900000 -97.700000 3.949628
29.200000 -97.700000 3.964390
29.500000 -97.700000 3.974178
29.800000 -97.700000 3.982105
30.100000 -97.700000 3.987914
30.400000 -97.700000 3.993151
30.700000 -97.700000 3.997763
31.000000 -97.700000 4.003807
31.300000 -97.700000 4.011030
31.600000 -97.700000 4.017233
31.900000 -97.700000 4.021536
32.200000 -97.700000 4.025806
32.500000 -97.700000 4.031759
32.800000 -97.700000 4.039042
33.100000 -97.700000 4.041763
33.400000 -97.700000 4.040253
33.700000 -97.700000 4.034595
34.000000 -97.700000 4.034718
34.300000 -97.700000 4.043938
34.600000 -97.700000 4.059288
34.900000 -97.700000 4.073448
35.200000 -97.700000 4.079893
35.500000 -97.700000 4.080585
35.800000 -97.700000 4.077226
36.100000 -97.700000 4.073935
36.400000 -97.700000 4.071470
36.700000 -97.700000 4.069866
37.000000 -97.700000 4.069588
37.300000 -97.700000 4.073709
37.600000 -97.700000 4.080313
37.900000 -97.700000 4.082342
38.200000 -97.700000 4.076317
38.500000 -97.700000 4.064751
38.800000 -97.700000 4.055908
39.100000 -97.700000 4.053213
39.400000 -97.700000 4.058731
39.700000 -97.700000 4.068424
40.000000 -97.700000 4.077254
40.300000 -97.700000 4.081049
40.600000 -97.700000 4.081594
40.900000 -97.700000 4.083329
41.200000 -97.700000 4.088811
41.500000 -97.700000 4.096570
41.800000 -97.700000 4.097524
42.100000 -97.700000 4.088532
42.400000 -97.700000 4.068920
42.700000 -97.700000 4.054323
43.000000 -97.700000 4.051415
43.300000 -97.700000 4.061546
43.600000 -97.700000 4.076845
43.900000 -97.700000 4.091671
44.200000 -97.700000 4.102135
44.500000 -97.700000 4.106426
44.800000 -97.700000 4.105047
45.100000 -97.700000 4.108212
45.400000 -97.700000 4.118651
45.700000 -97.700000 4.136397
46.000000 -97.700000 4.154658
46.300000 -97.700000 4.167096
46.600000 -97.700000 4.169929
46.900000 -97.700000 4.164676
47.200000 -97.700000 4.158629
47.500000 -97.700000 4.156257
47.800000 -97.700000 4.156880
48.100000 -97.700000 4.155747
48.400000 -97.700000 4.148871
48.700000 -97.700000 4.142450
27.400000 -97.400000 3.851199
28.000000 -97.400000 3.895371
28.300000 -97.400000 3.914390
28.600000 -97.400000 3.934537
28.900000 -97.400000 3.949414
29.200000 -97.400000 3.963134
29.500000 -97.400000 3.970019
29.800000 -97.400000 3.974329
30.100000 -97.400000 3.976733
30.400000 -97.400000 3.980446
30.700000 -97.400000 3.985666
31.000000 -97.400000 3.994424
31.300000 -97.400000 4.004126
31.600000 -97.400000 4.012570
31.900000 -97.400000 4.016795
32.200000 -97.400000 4.019629
32.500000 -97.400000 4.023564
32.800000 -97.400000 4.030799
33.100000 -97.400000 4.036798
33.400000 -97.400000 4.040162
33.700000 -97.400000 4.040175
34.000000 -97.400000 4.044071
34.300000 -97.400000 4.055339
34.600000 -97.400000 4.070322
34.900000 -97.400000 4.083162
35.200000 -97.400000 4.087692
35.500000 -97.400000 4.086978
35.800000 -97.400000 4.083564
36.100000 -97.400000 4.080048
36.400000 -97.400000 4.076853
36.700000 -97.400000 4.072810
37.000000 -97.400000 4.070789
37.300000 -97.400000 4.074736
37.600000 -97.400000 4.083263
37.900000 -97.400000 4.087627
38.200000 -97.400000 4.082564
38.500000 -97.400000 4.069916
38.800000 -97.400000 4.059596
39.100000 -97.400000 4.054768
39.400000 -97.400000 4.057006
39.700000 -97.400000 4.062310
40.000000 -97.400000 4.067773
40.300000 -97.400000 4.070782
40.600000 -97.400000 4.073262
40.900000 -97.400000 4.078002
41.200000 -97.400000 4.085762
41.500000 -97.400000 4.093719
41.800000 -97.400000 4.094736
42.100000 -97.400000 4.087501
42.400000 -97.400000 4.071861
42.700000 -97.400000 4.059328
43.000000 -97.400000 4.057111
43.300000 -97.400000 4.065800
43.600000 -97.400000 4.078040
43.900000 -97.400000 4.090912
44.200000 -97.400000 4.100525
44.500000 -97.400000 4.104027
44.800000 -97.400000 4.102988
45.100000 -97.400000 4.105384
45.400000 -97.400000 4.115989
45.700000 -97.400000 4.132878
46.000000 -97.400000 4.150860
46.300000 -97.400000 4.164281
46.600000 -97.400000 4.167181
46.900000 -97.400000 4.161944
47.200000 -97.400000 4.154229
47.500000 -97.400000 4.150011
47.800000 -97.400000 4.148407
48.100000 -97.400000 4.146840
48.400000 -97.400000 4.145139
48.700000 -97.400000 4.141205
28.600000 -97.100000 3.938541
28.900000 -97.100000 3.949927
29.200000 -97.100000 3.962219
29.500000 -97.100000 3.966633
29.800000 -97.100000 3.967354
30.100000 -97.100000 3.967042
30.400000 -97.100000 3.970096
30.700000 -97.100000 3.977993
31.000000 -97.100000 3.988692
31.300000 -97.100000 3.999879
31.600000 -97.100000 4.008298
31.900000 -97.100000 4.013157
32.200000 -97.100000 4.014508
32.500000 -97.100000 4.016811
32.800000 -97.100000 4.023470
33.100000 -97.100000 4.032336
33.400000 -97.100000 4.040102
33.700000 -97.100000 4.045717
34.000000 -97.100000 4.052857
34.300000 -97.100000 4.065852
34.600000 -97.100000 4.079649
34.900000 -97.100000 4.090415
35.200000 -97.100000 4.091360
35.500000 -97.100000 4.088608
35.800000 -97.100000 4.085312
36.100000 -97.100000 4.082940
36.400000 -97.100000 4.080129
36.700000 -97.100000 4.075364
37.000000 -97.100000 4.072945
37.300000 -97.100000 4.076683
37.600000 -97.100000 4.086449
37.900000 -97.100000 4.092833
38.200000 -97.100000 4.089421
38.500000 -97.100000 4.076905
38.800000 -97.100000 4.066535
39.100000 -97.100000 4.061533
39.400000 -97.100000 4.062378
39.700000 -97.100000 4.064275
40.000000 -97.100000 4.065606
40.300000 -97.100000 4.066481
40.600000 -97.100000 4.069448
40.900000 -97.100000 4.075967
41.200000 -97.100000 4.084732
41.500000 -97.100000 4.091745
41.800000 -97.100000 4.092836
42.100000 -97.100000 4.087670
42.400000 -97.100000 4.075669
42.700000 -97.100000 4.066246
43.000000 -97.100000 4.065428
43.300000 -97.100000 4.072741
43.600000 -97.100000 4.082666
43.900000 -97.100000 4.092311
44.200000 -97.100000 4.099096
44.500000 -97.100000 4.101190
44.800000 -97.100000 4.101388
45.100000 -97.100000 4.104058
45.400000 -97.100000 4.113958
45.700000 -97.100000 4.128831
46.000000 -97.100000 4.144264
46.300000 -97.100000 4.157580
46.600000 -97.100000 4.162047
46.900000 -97.100000 4.159413
47.200000 -97.100000 4.154651
47.500000 -97.100000 4.150994
47.800000 -97.100000 4.145823
48.100000 -97.100000 4.144858
48.400000 -97.100000 4.144062
48.700000 -97.100000 4.142933
28.600000 -96.800000 3.939847
28.900000 -96.800000 3.946538
29.200000 -96.800000 3.957490
29.500000 -96.800000 3.960995
29.800000 -96.800000 3.960096
30.100000 -96.800000 3.959070
30.400000 -96.800000 3.962543
30.700000 -96.800000 3.972522
31.000000 -96.800000 3.984716
31.300000 -96.800000 3.996153
31.600000 -96.800000 4.004349
31.900000 -96.800000 4.010061
32.200000 -96.800000 4.010438
32.500000 -96.800000 4.011420
32.800000 -96.800000 4.016365
33.100000 -96.800000 4.027498
33.400000 -96.800000 4.038726
33.700000 -96.800000 4.048983
34.000000 -96.800000 4.058254
34.300000 -96.800000 4.071629
34.600000 -96.800000 4.083708
34.900000 -96.800000 4.092087
35.200000 -96.800000 4.090728
35.500000 -96.800000 4.086230
35.800000 -96.800000 4.083359
36.100000 -96.800000 4.082292
36.400000 -96.800000 4.080455
36.700000 -96.800000 4.076669
37.000000 -96.800000 4.075534
37.300000 -96.800000 4.080589
37.600000 -96.800000 4.091352
37.900000 -96.800000 4.098831
38.200000 -96.800000 4.097673
38.500000 -96.800000 4.086614
38.800000 -96.800000 4.075939
39.100000 -96.800000 4.069938
39.400000 -96.800000 4.069812
39.700000 -96.800000 4.070404
40.000000 -96.800000 4.070100
40.300000 -96.800000 4.069396
40.600000 -96.800000 4.072623
40.900000 -96.800000 4.078812
41.200000 -96.800000 4.086471
41.500000 -96.800000 4.091186
41.800000 -96.800000 4.092559
42.100000 -96.800000 4.088498
42.400000 -96.800000 4.080605
42.700000 -96.800000 4.073800
43.000000 -96.800000 4.074452
43.300000 -96.800000 4.080852
43.600000 -96.800000 4.088817
43.900000 -96.800000 4.094508
44.200000 -96.800000 4.098774
44.500000 -96.800000 4.099500
44.800000 -96.800000 4.100291
45.100000 -96.800000 4.104053
45.400000 -96.800000 4.112905
45.700000 -96.800000 4.124952
46.000000 -96.800000 4.137324
46.300000 -96.800000 4.148765
46.600000 -96.800000 4.155538
46.900000 -96.800000 4.157562
47.200000 -96.800000 4.157254
47.500000 -96.800000 4.155323
47.800000 -96.800000 4.150281
48.100000 -96.800000 4.147878
48.400000 -96.800000 4.146468
48.700000 -96.800000 4.145774
28.600000 -96.500000 3.931630
28.900000 -96.500000 3.937327
29.200000 -96.500000 3.943916
29.500000 -96.500000 3.950373
29.800000 -96.500000 3.951309
30.100000 -96.500000 3.952091
30.400000 -96.500000 3.957180
30.700000 -96.500000 3.968972
31.000000 -96.500000 3.981399
31.300000 -96.500000 3.991465
31.600000 -96.500000 3.997371
31.900000 -96.500000 4.001777
32.200000 -96.500000 4.001770
32.500000 -96.500000 4.002869
32.800000 -96.500000 4.008451
33.100000 -96.500000 4.021339
33.400000 -96.500000 4.035739
33.700000 -96.500000 4.049043
34.000000 -96.500000 4.060112
34.300000 -96.500000 4.073035
34.600000 -96.500000 4.083634
34.900000 -96.500000 4.089994
35.200000 -96.500000 4.087927
35.500000 -96.500000 4.082753
35.800000 -96.500000 4.079914
36.100000 -96.500000 4.079970
36.400000 -96.500000 4.079569
36.700000 -96.500000 4.079025
37.000000 -96.500000 4.079971
37.300000 -96.500000 4.086725
37.600000 -96.500000 4.097423
37.900000 -96.500000 4.106358
38.200000 -96.500000 4.107056
38.500000 -96.500000 4.097250
38.800000 -96.500000 4.085026
39.100000 -96.500000 4.077514
39.400000 -96.500000 4.076907
39.700000 -96.500000 4.078245
40.000000 -96.500000 4.078643
40.300000 -96.500000 4.077863
40.600000 -96.500000 4.079730
40.900000 -96.500000 4.083350
41.200000 -96.500000 4.087708
41.500000 -96.500000 4.090151
41.800000 -96.500000 4.091583
42.100000 -96.500000 4.088876
42.400000 -96.500000 4.084305
42.700000 -96.500000 4.079999
43.000000 -96.500000 4.082602
43.300000 -96.500000 4.088051
43.600000 -96.500000 4.094328
43.900000 -96.500000 4.098559
44.200000 -96.500000 4.100118
44.500000 -96.500000 4.100125
44.800000 -96.500000 4.100558
45.100000 -96.500000 4.104664
45.400000 -96.500000 4.112345
45.700000 -96.500000 4.121266
46.000000 -96.500000 4.131031
46.300000 -96.500000 4.141682
46.600000 -96.500000 4.148790
46.900000 -96.500000 4.155747
47.200000 -96.500000 4.159866
47.500000 -96.500000 4.160658
47.800000 -96.500000 4.157066
48.100000 -96.500000 4.153892
48.400000 -96.500000 4.150610
48.700000 -96.500000 4.148924
28.900000 -96.200000 3.914140
29.200000 -96.200000 3.924489
29.500000 -96.200000 3.934978
29.800000 -96.200000 3.941729
30.100000 -96.200000 3.948152
30.400000 -96.200000 3.956361
30.700000 -96.200000 3.967920
31.000000 -96.200000 3.978480
31.300000 -96.200000 3.985704
31.600000 -96.200000 3.988389
31.900000 -96.200000 3.988891
32.200000 -96.200000 3.987399
32.500000 -96.200000 3.989169
32.800000 -96.200000 3.996976
33.100000 -96.200000 4.012219
33.400000 -96.200000 4.029790
33.700000 -96.200000 4.045486
34.000000 -96.200000 4.057787
34.300000 -96.200000 4.069106
34.600000 -96.200000 4.078271
34.900000 -96.200000 4.084084
35.200000 -96.200000 4.084358
35.500000 -96.200000 4.080681
35.800000 -96.200000 4.078229
36.100000 -96.200000 4.078958
36.400000 -96.200000 4.079816
36.700000 -96.200000 4.081799
37.000000 -96.200000 4.083955
37.300000 -96.200000 4.092059
37.600000 -96.200000 4.102866
37.900000 -96.200000 4.113068
38.200000 -96.200000 4.114683
38.500000 -96.200000 4.106503
38.800000 -96.200000 4.093275
39.100000 -96.200000 4.084628
39.400000 -96.200000 4.083110
39.700000 -96.200000 4.084919
40.000000 -96.200000 4.086323
40.300000 -96.200000 4.085302
40.600000 -96.200000 4.085470
40.900000 -96.200000 4.085872
41.200000 -96.200000 4.087224
41.500000 -96.200000 4.088502
41.800000 -96.200000 4.089583
42.100000 -96.200000 4.088039
42.400000 -96.200000 4.085552
42.700000 -96.200000 4.084921
43.000000 -96.200000 4.087462
43.300000 -96.200000 4.093897
43.600000 -96.200000 4.099605
43.900000 -96.200000 4.102795
44.200000 -96.200000 4.102868
44.500000 -96.200000 4.101803
44.800000 -96.200000 4.101453
45.100000 -96.200000 4.104388
45.400000 -96.200000 4.110705
45.700000 -96.200000 4.117983
46.000000 -96.200000 4.126621
46.300000 -96.200000 4.136242
46.600000 -96.200000 4.144720
46.900000 -96.200000 4.152977
47.200000 -96.200000 4.160613
47.500000 -96.200000 4.165411
47.800000 -96.200000 4.164353
48.100000 -96.200000 4.160480
48.400000 -96.200000 4.156568
48.700000 -96.200000 4.152248
28.600000 -95.900000 3.890645
28.900000 -95.900000 3.894986
29.200000 -95.900000 3.905331
29.500000 -95.900000 3.915887
29.800000 -95.900000 3.930303
30.100000 -95.900000 3.944298
30.400000 -95.900000 3.957746
30.700000 -95.900000 3.970915
31.000000 -95.900000 3.979260
31.300000 -95.900000 3.981434
31.600000 -95.900000 3.977384
31.900000 -95.900000 3.972047
32.200000 -95.900000 3.968778
32.500000 -95.900000 3.971236
32.800000 -95.900000 3.981971
33.100000 -95.900000 3.999610
33.400000 -95.900000 4.020833
33.700000 -95.900000 4.038326
34.000000 -95.900000 4.051007
34.300000 -95.900000 4.060459
34.600000 -95.900000 4.069251
34.900000 -95.900000 4.076989
35.200000 -95.900000 4.081514
35.500000 -95.900000 4.081201
35.800000 -95.900000 4.079501
36.100000 -95.900000 4.080209
36.400000 -95.900000 4.082123
36.700000 -95.900000 4.084930
37.000000 -95.900000 4.087953
37.300000 -95.900000 4.095758
37.600000 -95.900000 4.106763
37.900000 -95.900000 4.116796
38.200000 -95.900000 4.119125
38.500000 -95.900000 4.111852
38.800000 -95.900000 4.099899
39.100000 -95.900000 4.091278
39.400000 -95.900000 4.090312
39.700000 -95.900000 4.092733
40.000000 -95.900000 4.094002
40.300000 -95.900000 4.091586
40.600000 -95.900000 4.088016
40.900000 -95.900000 4.085197
41.200000 -95.900000 4.084106
41.500000 -95.900000 4.084206
41.800000 -95.900000 4.084411
42.100000 -95.900000 4.083868
42.400000 -95.900000 4.083604
42.700000 -95.900000 4.085898
43.000000 -95.900000 4.090293
43.300000 -95.900000 4.097180
43.600000 -95.900000 4.104525
43.900000 -95.900000 4.108374
44.200000 -95.900000 4.107858
44.500000 -95.900000 4.104106
44.800000 -95.900000 4.101312
45.100000 -95.900000 4.102403
45.400000 -95.900000 4.107296
45.700000 -95.900000 4.114823
46.000000 -95.900000 4.123703
46.300000 -95.900000 4.133489
46.600000 -95.900000 4.141677
46.900000 -95.900000 4.149521
47.200000 -95.900000 4.159054
47.500000 -95.900000 4.165863
47.800000 -95.900000 4.167824
48.100000 -95.900000 4.166043
48.400000 -95.900000 4.160501
48.700000 -95.900000 4.156717
29.200000 -95.600000 3.891804
29.500000 -95.600000 3.903146
29.800000 -95.600000 3.919963
30.100000 -95.600000 3.941664
30.400000 -95.600000 3.960278
30.700000 -95.600000 3.974982
31.000000 -95.600000 3.981624
31.300000 -95.600000 3.979798
31.600000 -95.600000 3.969626
31.900000 -95.600000 3.958561
32.200000 -95.600000 3.952045
32.500000 -95.600000 3.953908
32.800000 -95.600000 3.966242
33.100000 -95.600000 3.986458
33.400000 -95.600000 4.010766
33.700000 -95.600000 4.030496
34.000000 -95.600000 4.043182
34.300000 -95.600000 4.050897
34.600000 -95.600000 4.059011
34.900000 -95.600000 4.068876
35.200000 -95.600000 4.078914
35.500000 -95.600000 4.084302
35.800000 -95.600000 4.086008
36.100000 -95.600000 4.086936
36.400000 -95.600000 4.088448
36.700000 -95.600000 4.089783
37.000000 -95.600000 4.092087
37.300000 -95.600000 4.098210
37.600000 -95.600000 4.108304
37.900000 -95.600000 4.116425
38.200000 -95.600000 4.117899
38.500000 -95.600000 4.111575
38.800000 -95.600000 4.102875
39.100000 -95.600000 4.097264
39.400000 -95.600000 4.097465
39.700000 -95.600000 4.099717
40.000000 -95.600000 4.099493
40.300000 -95.600000 4.094857
40.600000 -95.600000 4.087907
40.900000 -95.600000 4.082072
41.200000 -95.600000 4.079550
41.500000 -95.600000 4.078159
41.800000 -95.600000 4.076867
42.100000 -95.600000 4.076632
42.400000 -95.600000 4.077478
42.700000 -95.600000 4.082128
43.000000 -95.600000 4.088253
43.300000 -95.600000 4.098447
43.600000 -95.600000 4.108848
43.900000 -95.600000 4.115076
44.200000 -95.600000 4.114522
44.500000 -95.600000 4.107915
44.800000 -95.600000 4.100720
45.100000 -95.600000 4.099494
45.400000 -95.600000 4.103746
45.700000 -95.600000 4.112029
46.000000 -95.600000 4.122197
46.300000 -95.600000 4.130936
46.600000 -95.600000 4.139227
46.900000 -95.600000 4.145722
47.200000 -95.600000 4.154649
47.500000 -95.600000 4.163263
47.800000 -95.600000 4.167732
48.100000 -95.600000 4.168163
48.400000 -95.600000 4.163357
48.700000 -95.600000 4.159298
29.500000 -95.300000 3.896533
29.800000 -95.300000 3.914944
30.100000 -95.300000 3.936567
30.400000 -95.300000 3.959460
30.700000 -95.300000 3.976682
31.000000 -95.300000 3.983643
31.300000 -95.300000 3.979228
31.600000 -95.300000 3.965400
31.900000 -95.300000 3.951067
32.200000 -95.300000 3.941897
32.500000 -95.300000 3.942960
32.800000 -95.300000 3.955259
33.100000 -95.300000 3.976854
33.400000 -95.300000 4.002139
33.700000 -95.300000 4.022682
34.000000 -95.300000 4.035694
34.300000 -95.300000 4.041902
34.600000 -95.300000 4.048861
34.900000 -95.300000 4.059834
35.200000 -95.300000 4.074565
35.500000 -95.300000 4.086708
35.800000 -95.300000 4.093491
36.100000 -95.300000 4.096156
36.400000 -95.300000 4.097473
36.700000 -95.300000 4.097636
37.000000 -95.300000 4.098951
37.300000 -95.300000 4.102125
37.600000 -95.300000 4.108995
37.900000 -95.300000 4.113042
38.200000 -95.300000 4.112817
38.500000 -95.300000 4.107108
38.800000 -95.300000 4.102659
39.100000 -95.300000 4.100754
39.400000 -95.300000 4.102780
39.700000 -95.300000 4.105095
40.000000 -95.300000 4.104026
40.300000 -95.300000 4.097283
40.600000 -95.300000 4.087342
40.900000 -95.300000 4.078919
41.200000 -95.300000 4.075256
41.500000 -95.300000 4.072627
41.800000 -95.300000 4.070283
42.100000 -95.300000 4.068858
42.400000 -95.300000 4.070124
42.700000 -95.300000 4.073783
43.000000 -95.300000 4.082270
43.300000 -95.300000 4.096088
43.600000 -95.300000 4.111445
43.900000 -95.300000 4.121098
44.200000 -95.300000 4.120194
44.500000 -95.300000 4.111316
44.800000 -95.300000 4.100870
45.100000 -95.300000 4.096791
45.400000 -95.300000 4.100777
45.700000 -95.300000 4.109336
46.000000 -95.300000 4.119340
46.300000 -95.300000 4.128659
46.600000 -95.300000 4.135412
46.900000 -95.300000 4.142172
47.200000 -95.300000 4.150255
47.500000 -95.300000 4.158010
47.800000 -95.300000 4.165009
48.100000 -95.300000 4.167539
48.400000 -95.300000 4.164688
48.700000 -95.300000 4.160336
29.800000 -95.000000 3.914353
30.100000 -95.000000 3.934641
30.400000 -95.000000 3.955653
30.700000 -95.000000 3.975232
31.000000 -95.000000 3.983954
31.300000 -95.000000 3.980204
31.600000 -95.000000 3.966584
31.900000 -95.000000 3.951257
32.200000 -95.000000 3.940316
32.500000 -95.000000 3.939760
32.800000 -95.000000 3.950874
33.100000 -95.000000 3.971522
33.400000 -95.000000 3.995267
33.700000 -95.000000 4.015523
34.000000 -95.000000 4.028617
34.300000 -95.000000 4.034281
34.600000 -95.000000 4.039392
34.900000 -95.000000 4.049934
35.200000 -95.000000 4.068465
35.500000 -95.000000 4.086926
35.800000 -95.000000 4.099150
36.100000 -95.000000 4.104912
36.400000 -95.000000 4.106648
36.700000 -95.000000 4.106803
37.000000 -95.000000 4.105980
37.300000 -95.000000 4.105721
37.600000 -95.000000 4.108101
37.900000 -95.000000 4.108027
38.200000 -95.000000 4.105495
38.500000 -95.000000 4.100615
38.800000 -95.000000 4.098496
39.100000 -95.000000 4.100170
39.400000 -95.000000 4.103257
39.700000 -95.000000 4.106496
40.000000 -95.000000 4.105263
40.300000 -95.000000 4.097506
40.600000 -95.000000 4.086172
40.900000 -95.000000 4.076450
41.200000 -95.000000 4.072617
41.500000 -95.000000 4.070288
41.800000 -95.000000 4.067432
42.100000 -95.000000 4.064209
42.400000 -95.000000 4.063021
42.700000 -95.000000 4.065246
43.000000 -95.000000 4.074522
43.300000 -95.000000 4.091708
43.600000 -95.000000 4.110851
43.900000 -95.000000 4.124057
44.200000 -95.000000 4.123711
44.500000 -95.000000 4.113915
44.800000 -95.000000 4.101318
45.100000 -95.000000 4.094986
45.400000 -95.000000 4.098047
45.700000 -95.000000 4.106060
46.000000 -95.000000 4.115329
46.300000 -95.000000 4.124303
46.600000 -95.000000 4.131814
46.900000 -95.000000 4.139571
47.200000 -95.000000 4.146625
47.500000 -95.000000 4.153822
47.800000 -95.000000 4.161516
48.100000 -95.000000 4.164917
48.400000 -95.000000 4.165711
30.100000 -94.700000 3.930803
30.400000 -94.700000 3.949405
30.700000 -94.700000 3.971862
31.000000 -94.700000 3.983590
31.300000 -94.700000 3.981140
31.600000 -94.700000 3.968824
31.900000 -94.700000 3.953840
32.200000 -94.700000 3.943422
32.500000 -94.700000 3.942766
32.800000 -94.700000 3.952294
33.100000 -94.700000 3.968826
33.400000 -94.700000 3.988763
33.700000 -94.700000 4.006662
34.000000 -94.700000 4.019955
34.300000 -94.700000 4.025847
