41.200000 -107.000000 3.795335
41.500000 -107.000000 3.823660
41.800000 -107.000000 3.843613
42.100000 -107.000000 3.861427
42.400000 -107.000000 3.876519
42.700000 -107.000000 3.886556
43.000000 -107.000000 3.892648
43.300000 -107.000000 3.899067
43.600000 -107.000000 3.907793
43.900000 -107.000000 3.916151
44.200000 -107.000000 3.928646
44.500000 -107.000000 3.939338
44.800000 -107.000000 3.953675
45.100000 -107.000000 3.961254
45.400000 -107.000000 3.957142
45.700000 -107.000000 3.948608
46.000000 -107.000000 3.935137
46.300000 -107.000000 3.920394
46.600000 -107.000000 3.911910
46.900000 -107.000000 3.911145
47.200000 -107.000000 3.917704
47.500000 -107.000000 3.923903
47.800000 -107.000000 3.929481
48.100000 -107.000000 3.934150
48.400000 -107.000000 3.937949
48.700000 -107.000000 3.938407
31.900000 -106.700000 3.741942
32.200000 -106.700000 3.731174
32.500000 -106.700000 3.720483
32.800000 -106.700000 3.713021
33.100000 -106.700000 3.711061
33.400000 -106.700000 3.710051
33.700000 -106.700000 3.707883
34.000000 -106.700000 3.704425
34.300000 -106.700000 3.697420
34.600000 -106.700000 3.687343
34.900000 -106.700000 3.672981
35.200000 -106.700000 3.658281
35.500000 -106.700000 3.648427
35.800000 -106.700000 3.642190
36.100000 -106.700000 3.641020
36.400000 -106.700000 3.643642
36.700000 -106.700000 3.646846
37.000000 -106.700000 3.650128
37.300000 -106.700000 3.651604
37.600000 -106.700000 3.651049
37.900000 -106.700000 3.649317
38.200000 -106.700000 3.648053
38.500000 -106.700000 3.645078
38.800000 -106.700000 3.645361
39.100000 -106.700000 3.650334
39.400000 -106.700000 3.658181
39.700000 -106.700000 3.665614
40.000000 -106.700000 3.673629
40.300000 -106.700000 3.690195
40.600000 -106.700000 3.719077
40.900000 -106.700000 3.757309
41.200000 -106.700000 3.796691
41.500000 -106.700000 3.825026
41.800000 -106.700000 3.850388
42.100000 -106.700000 3.871288
42.400000 -106.700000 3.887607
42.700000 -106.700000 3.898007
43.000000 -106.700000 3.904280
43.300000 -106.700000 3.911353
43.600000 -106.700000 3.914342
43.900000 -106.700000 3.914887
44.200000 -106.700000 3.919127
44.500000 -106.700000 3.931615
44.800000 -106.700000 3.946773
45.100000 -106.700000 3.958112
45.400000 -106.700000 3.960684
45.700000 -106.700000 3.954941
46.000000 -106.700000 3.944705
46.300000 -106.700000 3.930055
46.600000 -106.700000 3.916161
46.900000 -106.700000 3.912809
47.200000 -106.700000 3.916414
47.500000 -106.700000 3.922242
47.800000 -106.700000 3.928855
48.100000 -106.700000 3.933408
48.400000 -106.700000 3.938173
48.700000 -106.700000 3.938476
31.600000 -106.400000 3.765616
31.900000 -106.400000 3.749989
32.200000 -106.400000 3.731328
32.500000 -106.400000 3.718275
32.800000 -106.400000 3.709120
33.100000 -106.400000 3.706152
33.400000 -106.400000 3.705565
33.700000 -106.400000 3.706213
34.000000 -106.400000 3.706539
34.300000 -106.400000 3.704420
34.600000 -106.400000 3.698712
34.900000 -106.400000 3.684087
35.200000 -106.400000 3.667034
35.500000 -106.400000 3.651084
35.800000 -106.400000 3.636436
36.100000 -106.400000 3.628942
36.400000 -106.400000 3.629368
36.700000 -106.400000 3.634546
37.000000 -106.400000 3.641812
37.300000 -106.400000 3.649364
37.600000 -106.400000 3.656179
37.900000 -106.400000 3.660709
38.200000 -106.400000 3.663804
38.500000 -106.400000 3.666820
38.800000 -106.400000 3.670322
39.100000 -106.400000 3.676124
39.400000 -106.400000 3.683591
39.700000 -106.400000 3.688212
40.000000 -106.400000 3.693878
40.300000 -106.400000 3.705320
40.600000 -106.400000 3.728448
40.900000 -106.400000 3.764113
41.200000 -106.400000 3.801372
41.500000 -106.400000 3.833002
41.800000 -106.400000 3.858438
42.100000 -106.400000 3.880445
42.400000 -106.400000 3.894899
42.700000 -106.400000 3.904066
43.000000 -106.400000 3.911058
43.300000 -106.400000 3.918534
43.600000 -106.400000 3.921058
43.900000 -106.400000 3.916668
44.200000 -106.400000 3.918599
44.500000 -106.400000 3.927087
44.800000 -106.400000 3.944813
45.100000 -106.400000 3.959546
45.400000 -106.400000 3.966487
45.700000 -106.400000 3.965622
46.000000 -106.400000 3.956852
46.300000 -106.400000 3.939955
46.600000 -106.400000 3.923410
46.900000 -106.400000 3.913872
47.200000 -106.400000 3.913796
47.500000 -106.400000 3.920260
47.800000 -106.400000 3.927032
48.100000 -106.400000 3.932880
48.400000 -106.400000 3.935980
48.700000 -106.400000 3.937465
31.600000 -106.100000 3.772937
31.900000 -106.100000 3.756661
32.200000 -106.100000 3.736857
32.500000 -106.100000 3.721408
32.800000 -106.100000 3.710672
33.100000 -106.100000 3.706406
33.400000 -106.100000 3.706493
33.700000 -106.100000 3.709892
34.000000 -106.100000 3.714006
34.300000 -106.100000 3.716661
34.600000 -106.100000 3.714399
34.900000 -106.100000 3.703558
35.200000 -106.100000 3.686919
35.500000 -106.100000 3.666569
35.800000 -106.100000 3.644893
36.100000 -106.100000 3.629787
36.400000 -106.100000 3.626471
36.700000 -106.100000 3.632227
37.000000 -106.100000 3.639841
37.300000 -106.100000 3.650804
37.600000 -106.100000 3.661218
37.900000 -106.100000 3.670728
38.200000 -106.100000 3.680576
38.500000 -106.100000 3.689928
38.800000 -106.100000 3.698504
39.100000 -106.100000 3.706732
39.400000 -106.100000 3.713166
39.700000 -106.100000 3.714775
40.000000 -106.100000 3.718174
40.300000 -106.100000 3.727275
40.600000 -106.100000 3.746667
40.900000 -106.100000 3.777894
41.200000 -106.100000 3.813820
41.500000 -106.100000 3.846229
41.800000 -106.100000 3.870599
42.100000 -106.100000 3.889617
42.400000 -106.100000 3.901155
42.700000 -106.100000 3.907677
43.000000 -106.100000 3.914120
43.300000 -106.100000 3.922122
43.600000 -106.100000 3.924666
43.900000 -106.100000 3.919933
44.200000 -106.100000 3.919829
44.500000 -106.100000 3.928849
44.800000 -106.100000 3.944578
45.100000 -106.100000 3.963093
45.400000 -106.100000 3.975289
45.700000 -106.100000 3.977170
46.000000 -106.100000 3.967855
46.300000 -106.100000 3.949619
46.600000 -106.100000 3.929696
46.900000 -106.100000 3.914812
47.200000 -106.100000 3.911210
47.500000 -106.100000 3.916064
47.800000 -106.100000 3.924406
48.100000 -106.100000 3.929995
48.400000 -106.100000 3.934337
48.700000 -106.100000 3.935469
31.300000 -105.800000 3.791252
31.600000 -105.800000 3.782371
31.900000 -105.800000 3.767044
32.200000 -105.800000 3.747479
32.500000 -105.800000 3.732248
32.800000 -105.800000 3.719645
33.100000 -105.800000 3.714440
33.400000 -105.800000 3.715722
33.700000 -105.800000 3.722741
34.000000 -105.800000 3.730864
34.300000 -105.800000 3.735986
34.600000 -105.800000 3.735924
34.900000 -105.800000 3.727738
35.200000 -105.800000 3.711917
35.500000 -105.800000 3.689887
35.800000 -105.800000 3.662057
36.100000 -105.800000 3.640484
36.400000 -105.800000 3.632690
36.700000 -105.800000 3.635780
37.000000 -105.800000 3.644636
37.300000 -105.800000 3.654821
37.600000 -105.800000 3.666872
37.900000 -105.800000 3.678817
38.200000 -105.800000 3.693109
38.500000 -105.800000 3.706865
38.800000 -105.800000 3.720608
39.100000 -105.800000 3.732632
39.400000 -105.800000 3.741154
39.700000 -105.800000 3.745738
40.000000 -105.800000 3.749102
40.300000 -105.800000 3.755869
40.600000 -105.800000 3.770800
40.900000 -105.800000 3.796891
41.200000 -105.800000 3.830272
41.500000 -105.800000 3.859799
41.800000 -105.800000 3.882585
42.100000 -105.800000 3.896389
42.400000 -105.800000 3.903850
42.700000 -105.800000 3.906863
43.000000 -105.800000 3.913283
43.300000 -105.800000 3.920331
43.600000 -105.800000 3.924445
43.900000 -105.800000 3.920653
44.200000 -105.800000 3.922062
44.500000 -105.800000 3.930854
44.800000 -105.800000 3.946810
45.100000 -105.800000 3.968321
45.400000 -105.800000 3.985831
45.700000 -105.800000 3.988810
46.000000 -105.800000 3.977531
46.300000 -105.800000 3.957127
46.600000 -105.800000 3.933929
46.900000 -105.800000 3.915690
47.200000 -105.800000 3.907115
47.500000 -105.800000 3.909767
47.800000 -105.800000 3.916203
48.100000 -105.800000 3.921836
48.400000 -105.800000 3.927374
48.700000 -105.800000 3.929332
31.000000 -105.500000 3.791907
31.300000 -105.500000 3.792439
31.600000 -105.500000 3.789643
31.900000 -105.500000 3.779766
32.200000 -105.500000 3.766628
32.500000 -105.500000 3.751422
32.800000 -105.500000 3.736706
33.100000 -105.500000 3.729332
33.400000 -105.500000 3.732772
33.700000 -105.500000 3.745266
34.000000 -105.500000 3.757599
34.300000 -105.500000 3.764426
34.600000 -105.500000 3.761253
34.900000 -105.500000 3.753061
35.200000 -105.500000 3.737784
35.500000 -105.500000 3.713661
35.800000 -105.500000 3.684275
36.100000 -105.500000 3.658848
36.400000 -105.500000 3.645571
36.700000 -105.500000 3.645639
37.000000 -105.500000 3.654345
37.300000 -105.500000 3.664246
37.600000 -105.500000 3.675787
37.900000 -105.500000 3.688554
38.200000 -105.500000 3.703994
38.500000 -105.500000 3.720509
38.800000 -105.500000 3.735813
39.100000 -105.500000 3.752159
39.400000 -105.500000 3.766727
39.700000 -105.500000 3.776022
40.000000 -105.500000 3.781733
40.300000 -105.500000 3.787719
40.600000 -105.500000 3.797211
40.900000 -105.500000 3.816785
41.200000 -105.500000 3.843338
41.500000 -105.500000 3.869576
41.800000 -105.500000 3.886914
42.100000 -105.500000 3.896260
42.400000 -105.500000 3.899040
42.700000 -105.500000 3.900690
43.000000 -105.500000 3.904769
43.300000 -105.500000 3.912961
43.600000 -105.500000 3.917660
43.900000 -105.500000 3.917708
44.200000 -105.500000 3.922555
44.500000 -105.500000 3.932735
44.800000 -105.500000 3.950961
45.100000 -105.500000 3.973558
45.400000 -105.500000 3.992678
45.700000 -105.500000 3.995462
46.000000 -105.500000 3.981606
46.300000 -105.500000 3.958280
46.600000 -105.500000 3.934157
46.900000 -105.500000 3.913351
47.200000 -105.500000 3.904032
47.500000 -105.500000 3.903252
47.800000 -105.500000 3.906898
48.100000 -105.500000 3.912329
48.400000 -105.500000 3.917873
48.700000 -105.500000 3.921702
30.700000 -105.200000 3.785225
31.000000 -105.200000 3.789035
31.300000 -105.200000 3.793612
31.600000 -105.200000 3.797738
31.900000 -105.200000 3.799253
32.200000 -105.200000 3.795751
32.500000 -105.200000 3.782549
32.800000 -105.200000 3.764291
33.100000 -105.200000 3.755382
33.400000 -105.200000 3.759641
33.700000 -105.200000 3.776694
34.000000 -105.200000 3.794280
34.300000 -105.200000 3.795012
34.600000 -105.200000 3.789158
34.900000 -105.200000 3.776266
35.200000 -105.200000 3.759225
35.500000 -105.200000 3.735818
35.800000 -105.200000 3.707866
36.100000 -105.200000 3.681359
36.400000 -105.200000 3.664928
36.700000 -105.200000 3.661987
37.000000 -105.200000 3.668831
37.300000 -105.200000 3.679959
37.600000 -105.200000 3.690737
37.900000 -105.200000 3.703956
38.200000 -105.200000 3.720318
38.500000 -105.200000 3.736949
38.800000 -105.200000 3.753453
39.100000 -105.200000 3.770426
39.400000 -105.200000 3.787510
39.700000 -105.200000 3.800445
40.000000 -105.200000 3.809374
40.300000 -105.200000 3.814294
40.600000 -105.200000 3.821944
40.900000 -105.200000 3.834471
41.200000 -105.200000 3.854144
41.500000 -105.200000 3.872089
41.800000 -105.200000 3.883097
42.100000 -105.200000 3.886936
42.400000 -105.200000 3.889365
42.700000 -105.200000 3.888258
43.000000 -105.200000 3.892861
43.300000 -105.200000 3.898809
43.600000 -105.200000 3.905563
43.900000 -105.200000 3.908719
44.200000 -105.200000 3.917319
44.500000 -105.200000 3.933708
44.800000 -105.200000 3.952304
45.100000 -105.200000 3.975564
45.400000 -105.200000 3.992402
45.700000 -105.200000 3.994819
46.000000 -105.200000 3.978914
46.300000 -105.200000 3.954795
46.600000 -105.200000 3.929876
46.900000 -105.200000 3.910539
47.200000 -105.200000 3.900039
47.500000 -105.200000 3.897381
47.800000 -105.200000 3.899883
48.100000 -105.200000 3.904641
48.400000 -105.200000 3.911628
48.700000 -105.200000 3.916038
30.400000 -104.900000 3.783848
30.700000 -104.900000 3.784677
31.000000 -104.900000 3.786370
31.300000 -104.900000 3.795595
31.600000 -104.900000 3.810338
31.900000 -104.900000 3.826693
32.200000 -104.900000 3.833927
32.500000 -104.900000 3.825513
32.800000 -104.900000 3.804679
33.100000 -104.900000 3.790844
33.400000 -104.900000 3.794953
33.700000 -104.900000 3.812560
34.000000 -104.900000 3.824752
34.300000 -104.900000 3.823471
34.600000 -104.900000 3.809214
34.900000 -104.900000 3.794445
35.200000 -104.900000 3.776465
35.500000 -104.900000 3.754662
35.800000 -104.900000 3.730276
36.100000 -104.900000 3.706892
36.400000 -104.900000 3.690318
36.700000 -104.900000 3.684447
37.000000 -104.900000 3.689528
37.300000 -104.900000 3.699646
37.600000 -104.900000 3.712405
37.900000 -104.900000 3.727373
38.200000 -104.900000 3.744344
38.500000 -104.900000 3.761494
38.800000 -104.900000 3.776638
39.100000 -104.900000 3.792254
39.400000 -104.900000 3.807957
39.700000 -104.900000 3.821467
40.000000 -104.900000 3.830477
40.300000 -104.900000 3.836833
40.600000 -104.900000 3.840950
40.900000 -104.900000 3.848625
41.200000 -104.900000 3.858775
41.500000 -104.900000 3.867916
41.800000 -104.900000 3.872255
42.100000 -104.900000 3.874257
42.400000 -104.900000 3.875197
42.700000 -104.900000 3.875785
43.000000 -104.900000 3.878515
43.300000 -104.900000 3.884390
43.600000 -104.900000 3.891194
43.900000 -104.900000 3.896825
44.200000 -104.900000 3.911375
44.500000 -104.900000 3.930483
44.800000 -104.900000 3.952133
45.100000 -104.900000 3.972151
45.400000 -104.900000 3.988011
45.700000 -104.900000 3.989591
46.000000 -104.900000 3.974252
46.300000 -104.900000 3.949961
46.600000 -104.900000 3.926721
46.900000 -104.900000 3.907885
47.200000 -104.900000 3.898188
47.500000 -104.900000 3.895186
47.800000 -104.900000 3.896473
48.100000 -104.900000 3.900905
48.400000 -104.900000 3.908267
48.700000 -104.900000 3.914186
30.400000 -104.600000 3.785584
30.700000 -104.600000 3.783837
31.000000 -104.600000 3.787992
31.300000 -104.600000 3.800673
31.600000 -104.600000 3.824464
31.900000 -104.600000 3.851795
32.200000 -104.600000 3.873510
32.500000 -104.600000 3.865952
32.800000 -104.600000 3.845736
33.100000 -104.600000 3.830428
33.400000 -104.600000 3.829550
33.700000 -104.600000 3.841366
34.000000 -104.600000 3.848600
34.300000 -104.600000 3.838806
34.600000 -104.600000 3.823109
34.900000 -104.600000 3.807365
35.200000 -104.600000 3.788472
35.500000 -104.600000 3.771565
35.800000 -104.600000 3.752895
36.100000 -104.600000 3.733409
36.400000 -104.600000 3.719066
36.700000 -104.600000 3.711850
37.000000 -104.600000 3.713240
37.300000 -104.600000 3.722271
37.600000 -104.600000 3.738534
37.900000 -104.600000 3.756590
38.200000 -104.600000 3.774711
38.500000 -104.600000 3.791281
38.800000 -104.600000 3.803927
39.100000 -104.600000 3.815317
39.400000 -104.600000 3.827728
39.700000 -104.600000 3.839238
40.000000 -104.600000 3.847035
40.300000 -104.600000 3.852303
40.600000 -104.600000 3.854107
40.900000 -104.600000 3.853720
41.200000 -104.600000 3.856949
41.500000 -104.600000 3.859266
41.800000 -104.600000 3.859846
42.100000 -104.600000 3.861651
42.400000 -104.600000 3.862244
42.700000 -104.600000 3.861830
43.000000 -104.600000 3.864104
43.300000 -104.600000 3.871045
43.600000 -104.600000 3.877541
43.900000 -104.600000 3.887223
44.200000 -104.600000 3.906162
44.500000 -104.600000 3.926820
44.800000 -104.600000 3.948251
45.100000 -104.600000 3.967220
45.400000 -104.600000 3.980278
45.700000 -104.600000 3.981120
46.000000 -104.600000 3.966418
46.300000 -104.600000 3.945112
46.600000 -104.600000 3.922946
46.900000 -104.600000 3.907462
47.200000 -104.600000 3.900225
47.500000 -104.600000 3.899443
47.800000 -104.600000 3.901485
48.100000 -104.600000 3.904715
48.400000 -104.600000 3.911613
48.700000 -104.600000 3.914617
29.500000 -104.300000 3.783177
29.800000 -104.300000 3.787337
30.100000 -104.300000 3.790935
30.400000 -104.300000 3.789927
30.700000 -104.300000 3.789933
31.000000 -104.300000 3.794857
31.300000 -104.300000 3.807205
31.600000 -104.300000 3.832135
31.900000 -104.300000 3.865204
32.200000 -104.300000 3.887195
32.500000 -104.300000 3.890843
32.800000 -104.300000 3.874460
33.100000 -104.300000 3.862481
33.400000 -104.300000 3.860027
33.700000 -104.300000 3.863415
34.000000 -104.300000 3.862224
34.300000 -104.300000 3.846887
34.600000 -104.300000 3.832040
34.900000 -104.300000 3.814757
35.200000 -104.300000 3.801548
35.500000 -104.300000 3.788184
35.800000 -104.300000 3.776013
36.100000 -104.300000 3.759878
36.400000 -104.300000 3.748069
36.700000 -104.300000 3.740070
37.000000 -104.300000 3.738904
37.300000 -104.300000 3.748306
37.600000 -104.300000 3.767031
37.900000 -104.300000 3.788860
38.200000 -104.300000 3.806052
38.500000 -104.300000 3.819332
38.800000 -104.300000 3.828022
39.100000 -104.300000 3.835360
39.400000 -104.300000 3.844228
39.700000 -104.300000 3.852475
40.000000 -104.300000 3.858821
40.300000 -104.300000 3.863202
40.600000 -104.300000 3.860864
40.900000 -104.300000 3.858481
41.200000 -104.300000 3.856403
41.500000 -104.300000 3.854958
41.800000 -104.300000 3.855547
42.100000 -104.300000 3.854743
42.400000 -104.300000 3.854050
42.700000 -104.300000 3.851907
43.000000 -104.300000 3.854521
43.300000 -104.300000 3.861493
43.600000 -104.300000 3.871138
43.900000 -104.300000 3.884684
44.200000 -104.300000 3.903128
44.500000 -104.300000 3.923698
44.800000 -104.300000 3.942124
45.100000 -104.300000 3.959938
45.400000 -104.300000 3.969688
45.700000 -104.300000 3.968794
46.000000 -104.300000 3.955648
46.300000 -104.300000 3.938595
46.600000 -104.300000 3.920718
46.900000 -104.300000 3.907417
47.200000 -104.300000 3.904710
47.500000 -104.300000 3.907123
47.800000 -104.300000 3.911623
48.100000 -104.300000 3.918251
48.400000 -104.300000 3.919238
48.700000 -104.300000 3.922049
29.500000 -104.000000 3.785071
29.800000 -104.000000 3.789113
30.100000 -104.000000 3.793617
30.400000 -104.000000 3.795545
30.700000 -104.000000 3.799669
31.000000 -104.000000 3.804510
31.300000 -104.000000 3.816363
31.600000 -104.000000 3.836810
31.900000 -104.000000 3.862957
32.200000 -104.000000 3.887960
32.500000 -104.000000 3.894705
32.800000 -104.000000 3.892167
33.100000 -104.000000 3.887122
33.400000 -104.000000 3.884840
33.700000 -104.000000 3.883251
34.000000 -104.000000 3.873583
34.300000 -104.000000 3.855686
34.600000 -104.000000 3.838064
34.900000 -104.000000 3.826529
35.200000 -104.000000 3.814376
35.500000 -104.000000 3.807878
35.800000 -104.000000 3.799265
36.100000 -104.000000 3.787256
36.400000 -104.000000 3.776092
36.700000 -104.000000 3.770453
37.000000 -104.000000 3.769330
37.300000 -104.000000 3.778511
37.600000 -104.000000 3.797925
37.900000 -104.000000 3.817206
38.200000 -104.000000 3.830431
38.500000 -104.000000 3.837391
38.800000 -104.000000 3.842590
39.100000 -104.000000 3.846989
39.400000 -104.000000 3.855019
39.700000 -104.000000 3.861916
40.000000 -104.000000 3.866141
40.300000 -104.000000 3.869334
40.600000 -104.000000 3.868093
40.900000 -104.000000 3.865072
41.200000 -104.000000 3.863976
41.500000 -104.000000 3.862084
41.800000 -104.000000 3.859061
42.100000 -104.000000 3.857094
42.400000 -104.000000 3.852853
42.700000 -104.000000 3.849179
43.000000 -104.000000 3.850057
43.300000 -104.000000 3.857560
43.600000 -104.000000 3.868954
43.900000 -104.000000 3.883879
44.200000 -104.000000 3.902519
44.500000 -104.000000 3.919503
44.800000 -104.000000 3.936375
45.100000 -104.000000 3.951858
45.400000 -104.000000 3.960974
45.700000 -104.000000 3.959576
46.000000 -104.000000 3.951536
46.300000 -104.000000 3.937256
46.600000 -104.000000 3.921360
46.900000 -104.000000 3.911011
47.200000 -104.000000 3.908122
47.500000 -104.000000 3.913998
47.800000 -104.000000 3.922847
48.100000 -104.000000 3.929298
48.400000 -104.000000 3.932000
48.700000 -104.000000 3.927288
29.500000 -103.700000 3.788841
29.800000 -103.700000 3.792751
30.100000 -103.700000 3.797894
30.400000 -103.700000 3.803962
30.700000 -103.700000 3.809841
31.000000 -103.700000 3.818235
31.300000 -103.700000 3.826457
31.600000 -103.700000 3.842755
31.900000 -103.700000 3.863518
32.200000 -103.700000 3.881962
32.500000 -103.700000 3.897160
32.800000 -103.700000 3.900959
33.100000 -103.700000 3.902861
33.400000 -103.700000 3.902871
33.700000 -103.700000 3.897680
34.000000 -103.700000 3.885653
34.300000 -103.700000 3.865891
34.600000 -103.700000 3.849576
34.900000 -103.700000 3.837699
35.200000 -103.700000 3.830914
35.500000 -103.700000 3.826423
35.800000 -103.700000 3.823519
36.100000 -103.700000 3.814181
36.400000 -103.700000 3.806871
36.700000 -103.700000 3.802210
37.000000 -103.700000 3.802101
37.300000 -103.700000 3.811402
37.600000 -103.700000 3.826122
37.900000 -103.700000 3.840409
38.200000 -103.700000 3.845753
38.500000 -103.700000 3.847579
38.800000 -103.700000 3.848762
39.100000 -103.700000 3.853058
39.400000 -103.700000 3.861215
39.700000 -103.700000 3.869777
40.000000 -103.700000 3.874161
40.300000 -103.700000 3.876721
40.600000 -103.700000 3.877360
40.900000 -103.700000 3.877812
41.200000 -103.700000 3.877234
41.500000 -103.700000 3.875529
41.800000 -103.700000 3.871911
42.100000 -103.700000 3.867410
42.400000 -103.700000 3.860959
42.700000 -103.700000 3.854877
43.000000 -103.700000 3.851813
43.300000 -103.700000 3.856441
43.600000 -103.700000 3.866594
43.900000 -103.700000 3.880276
44.200000 -103.700000 3.899223
44.500000 -103.700000 3.916830
44.800000 -103.700000 3.933012
45.100000 -103.700000 3.947221
45.400000 -103.700000 3.955025
45.700000 -103.700000 3.958511
46.000000 -103.700000 3.952388
46.300000 -103.700000 3.942872
46.600000 -103.700000 3.929729
46.900000 -103.700000 3.920212
47.200000 -103.700000 3.918918
47.500000 -103.700000 3.922529
47.800000 -103.700000 3.929811
48.100000 -103.700000 3.936363
48.400000 -103.700000 3.932640
29.200000 -103.400000 3.781308
29.500000 -103.400000 3.789129
29.800000 -103.400000 3.795872
30.100000 -103.400000 3.803686
30.400000 -103.400000 3.812106
30.700000 -103.400000 3.823915
31.000000 -103.400000 3.833533
31.300000 -103.400000 3.844466
31.600000 -103.400000 3.856605
31.900000 -103.400000 3.871023
32.200000 -103.400000 3.887840
32.500000 -103.400000 3.900343
32.800000 -103.400000 3.908441
33.100000 -103.400000 3.909906
33.400000 -103.400000 3.907855
33.700000 -103.400000 3.902245
34.000000 -103.400000 3.889989
34.300000 -103.400000 3.875324
34.600000 -103.400000 3.861621
34.900000 -103.400000 3.851108
35.200000 -103.400000 3.844104
35.500000 -103.400000 3.843923
35.800000 -103.400000 3.844885
36.100000 -103.400000 3.843144
36.400000 -103.400000 3.839185
36.700000 -103.400000 3.836334
37.000000 -103.400000 3.837803
37.300000 -103.400000 3.843364
37.600000 -103.400000 3.853897
37.900000 -103.400000 3.859736
38.200000 -103.400000 3.859645
38.500000 -103.400000 3.855450
38.800000 -103.400000 3.855431
39.100000 -103.400000 3.859557
39.400000 -103.400000 3.870603
39.700000 -103.400000 3.882158
40.000000 -103.400000 3.888022
40.300000 -103.400000 3.891463
40.600000 -103.400000 3.892390
40.900000 -103.400000 3.894703
41.200000 -103.400000 3.894264
41.500000 -103.400000 3.891113
41.800000 -103.400000 3.888138
42.100000 -103.400000 3.882661
42.400000 -103.400000 3.874953
42.700000 -103.400000 3.865055
43.000000 -103.400000 3.859251
43.300000 -103.400000 3.860855
43.600000 -103.400000 3.868234
43.900000 -103.400000 3.882085
44.200000 -103.400000 3.900306
44.500000 -103.400000 3.921377
44.800000 -103.400000 3.937924
45.100000 -103.400000 3.949335
45.400000 -103.400000 3.956341
45.700000 -103.400000 3.957456
46.000000 -103.400000 3.955474
46.300000 -103.400000 3.948979
46.600000 -103.400000 3.943536
46.900000 -103.400000 3.938607
47.200000 -103.400000 3.937734
47.500000 -103.400000 3.940566
47.800000 -103.400000 3.942560
48.100000 -103.400000 3.939477
48.400000 -103.400000 3.935620
29.500000 -103.100000 3.794312
29.800000 -103.100000 3.799690
30.100000 -103.100000 3.810942
30.400000 -103.100000 3.824618
30.700000 -103.100000 3.840354
31.000000 -103.100000 3.857671
31.300000 -103.100000 3.870474
31.600000 -103.100000 3.880287
31.900000 -103.100000 3.888674
32.200000 -103.100000 3.896274
32.500000 -103.100000 3.908686
32.800000 -103.100000 3.912968
33.100000 -103.100000 3.914850
33.400000 -103.100000 3.911422
33.700000 -103.100000 3.901321
34.000000 -103.100000 3.894568
34.300000 -103.100000 3.885127
34.600000 -103.100000 3.874650
34.900000 -103.100000 3.861676
35.200000 -103.100000 3.856026
35.500000 -103.100000 3.856134
35.800000 -103.100000 3.863834
36.100000 -103.100000 3.867919
36.400000 -103.100000 3.869373
36.700000 -103.100000 3.869182
37.000000 -103.100000 3.869859
37.300000 -103.100000 3.874677
37.600000 -103.100000 3.878077
37.900000 -103.100000 3.879407
38.200000 -103.100000 3.872948
38.500000 -103.100000 3.866234
38.800000 -103.100000 3.864691
39.100000 -103.100000 3.868545
39.400000 -103.100000 3.881706
39.700000 -103.100000 3.896692
40.000000 -103.100000 3.904090
40.300000 -103.100000 3.906544
40.600000 -103.100000 3.908895
40.900000 -103.100000 3.911270
41.200000 -103.100000 3.910290
41.500000 -103.100000 3.907423
41.800000 -103.100000 3.903032
42.100000 -103.100000 3.898297
42.400000 -103.100000 3.889373
42.700000 -103.100000 3.877953
43.000000 -103.100000 3.869164
43.300000 -103.100000 3.868922
43.600000 -103.100000 3.876753
43.900000 -103.100000 3.890488
44.200000 -103.100000 3.910765
44.500000 -103.100000 3.934069
44.800000 -103.100000 3.948347
45.100000 -103.100000 3.961231
45.400000 -103.100000 3.964505
45.700000 -103.100000 3.962184
46.000000 -103.100000 3.956306
46.300000 -103.100000 3.952936
46.600000 -103.100000 3.949455
46.900000 -103.100000 3.948062
47.200000 -103.100000 3.948233
47.500000 -103.100000 3.948936
47.800000 -103.100000 3.948323
48.100000 -103.100000 3.947011
29.500000 -102.800000 3.793600
29.800000 -102.800000 3.801625
30.100000 -102.800000 3.818176
30.400000 -102.800000 3.837789
30.700000 -102.800000 3.862512
31.000000 -102.800000 3.885707
31.300000 -102.800000 3.901694
31.600000 -102.800000 3.906677
31.900000 -102.800000 3.905915
32.200000 -102.800000 3.905069
32.500000 -102.800000 3.906999
32.800000 -102.800000 3.912343
33.100000 -102.800000 3.917044
33.400000 -102.800000 3.913093
33.700000 -102.800000 3.906966
34.000000 -102.800000 3.900153
34.300000 -102.800000 3.895549
34.600000 -102.800000 3.883472
34.900000 -102.800000 3.871138
35.200000 -102.800000 3.863527
35.500000 -102.800000 3.866109
35.800000 -102.800000 3.875604
36.100000 -102.800000 3.886123
36.400000 -102.800000 3.891851
36.700000 -102.800000 3.895147
37.000000 -102.800000 3.897069
37.300000 -102.800000 3.897943
37.600000 -102.800000 3.898170
37.900000 -102.800000 3.893061
38.200000 -102.800000 3.885785
38.500000 -102.800000 3.878442
38.800000 -102.800000 3.874968
39.100000 -102.800000 3.880218
39.400000 -102.800000 3.894509
39.700000 -102.800000 3.910193
40.000000 -102.800000 3.919119
40.300000 -102.800000 3.921665
40.600000 -102.800000 3.922181
40.900000 -102.800000 3.925804
41.200000 -102.800000 3.925074
41.500000 -102.800000 3.920172
41.800000 -102.800000 3.913940
42.100000 -102.800000 3.908330
42.400000 -102.800000 3.899316
42.700000 -102.800000 3.888363
43.000000 -102.800000 3.880118
43.300000 -102.800000 3.879753
43.600000 -102.800000 3.889007
43.900000 -102.800000 3.905692
44.200000 -102.800000 3.927161
44.500000 -102.800000 3.947587
44.800000 -102.800000 3.962907
45.100000 -102.800000 3.971833
45.400000 -102.800000 3.975703
45.700000 -102.800000 3.970021
46.000000 -102.800000 3.961132
46.300000 -102.800000 3.955800
46.600000 -102.800000 3.953127
46.900000 -102.800000 3.950970
47.200000 -102.800000 3.951601
47.500000 -102.800000 3.952974
47.800000 -102.800000 3.953416
48.100000 -102.800000 3.949089
48.400000 -102.800000 3.950909
29.800000 -102.500000 3.810081
30.100000 -102.500000 3.830812
30.400000 -102.500000 3.854442
30.700000 -102.500000 3.883066
31.000000 -102.500000 3.909872
31.300000 -102.500000 3.926380
31.600000 -102.500000 3.929425
31.900000 -102.500000 3.921306
32.200000 -102.500000 3.911665
32.500000 -102.500000 3.906655
32.800000 -102.500000 3.909780
33.100000 -102.500000 3.917013
33.400000 -102.500000 3.919928
33.700000 -102.500000 3.915047
34.000000 -102.500000 3.910496
34.300000 -102.500000 3.903819
34.600000 -102.500000 3.892777
34.900000 -102.500000 3.879842
35.200000 -102.500000 3.873721
35.500000 -102.500000 3.874780
35.800000 -102.500000 3.884185
36.100000 -102.500000 3.897207
36.400000 -102.500000 3.908372
36.700000 -102.500000 3.914097
37.000000 -102.500000 3.916471
37.300000 -102.500000 3.914130
37.600000 -102.500000 3.909106
37.900000 -102.500000 3.903081
38.200000 -102.500000 3.895569
38.500000 -102.500000 3.889779
38.800000 -102.500000 3.888312
39.100000 -102.500000 3.893324
39.400000 -102.500000 3.907867
39.700000 -102.500000 3.924350
40.000000 -102.500000 3.932484
40.300000 -102.500000 3.933950
40.600000 -102.500000 3.935502
40.900000 -102.500000 3.936805
41.200000 -102.500000 3.934562
41.500000 -102.500000 3.927197
41.800000 -102.500000 3.919399
42.100000 -102.500000 3.911503
42.400000 -102.500000 3.904671
42.700000 -102.500000 3.895440
43.000000 -102.500000 3.889192
43.300000 -102.500000 3.889375
43.600000 -102.500000 3.901530
43.900000 -102.500000 3.919864
44.200000 -102.500000 3.940731
44.500000 -102.500000 3.961017
44.800000 -102.500000 3.970575
45.100000 -102.500000 3.978586
45.400000 -102.500000 3.980940
45.700000 -102.500000 3.973986
46.000000 -102.500000 3.963019
46.300000 -102.500000 3.955417
46.600000 -102.500000 3.951806
46.900000 -102.500000 3.951420
47.200000 -102.500000 3.954897
47.500000 -102.500000 3.957978
47.800000 -102.500000 3.959084
48.100000 -102.500000 3.958246
48.400000 -102.500000 3.955597
48.700000 -102.500000 3.961833
30.100000 -102.200000 3.851413
30.400000 -102.200000 3.871575
30.700000 -102.200000 3.900263
31.000000 -102.200000 3.927077
31.300000 -102.200000 3.942196
31.600000 -102.200000 3.944685
31.900000 -102.200000 3.935444
32.200000 -102.200000 3.921648
32.500000 -102.200000 3.913601
32.800000 -102.200000 3.913445
33.100000 -102.200000 3.923788
33.400000 -102.200000 3.927334
33.700000 -102.200000 3.924994
34.000000 -102.200000 3.919281
34.300000 -102.200000 3.911058
34.600000 -102.200000 3.899320
34.900000 -102.200000 3.888451
35.200000 -102.200000 3.881025
35.500000 -102.200000 3.880149
35.800000 -102.200000 3.889760
36.100000 -102.200000 3.903580
36.400000 -102.200000 3.918335
36.700000 -102.200000 3.927813
37.000000 -102.200000 3.926947
37.300000 -102.200000 3.922541
37.600000 -102.200000 3.916096
37.900000 -102.200000 3.911119
38.200000 -102.200000 3.907601
38.500000 -102.200000 3.906130
38.800000 -102.200000 3.906308
39.100000 -102.200000 3.911567
39.400000 -102.200000 3.923030
39.700000 -102.200000 3.935309
40.000000 -102.200000 3.942245
40.300000 -102.200000 3.944778
40.600000 -102.200000 3.944694
40.900000 -102.200000 3.945288
41.200000 -102.200000 3.938241
41.500000 -102.200000 3.928134
41.800000 -102.200000 3.919746
42.100000 -102.200000 3.914017
42.400000 -102.200000 3.905662
42.700000 -102.200000 3.900087
43.000000 -102.200000 3.895498
43.300000 -102.200000 3.896738
43.600000 -102.200000 3.910814
43.900000 -102.200000 3.931834
44.200000 -102.200000 3.950522
44.500000 -102.200000 3.968314
44.800000 -102.200000 3.975781
45.100000 -102.200000 3.981130
45.400000 -102.200000 3.980703
45.700000 -102.200000 3.974075
46.000000 -102.200000 3.961848
46.300000 -102.200000 3.952199
46.600000 -102.200000 3.947034
46.900000 -102.200000 3.948712
47.200000 -102.200000 3.953844
47.500000 -102.200000 3.960064
47.800000 -102.200000 3.961025
48.100000 -102.200000 3.960988
48.400000 -102.200000 3.964240
48.700000 -102.200000 3.966458
30.100000 -101.900000 3.862005
30.400000 -101.900000 3.878942
30.700000 -101.900000 3.907206
31.000000 -101.900000 3.932199
31.300000 -101.900000 3.949943
31.600000 -101.900000 3.954061
31.900000 -101.900000 3.947057
32.200000 -101.900000 3.934534
32.500000 -101.900000 3.925480
32.800000 -101.900000 3.925529
33.100000 -101.900000 3.933654
33.400000 -101.900000 3.939342
33.700000 -101.900000 3.934906
34.000000 -101.900000 3.925836
34.300000 -101.900000 3.914528
34.600000 -101.900000 3.902364
34.900000 -101.900000 3.889166
35.200000 -101.900000 3.880458
35.500000 -101.900000 3.880749
35.800000 -101.900000 3.889376
36.100000 -101.900000 3.906505
36.400000 -101.900000 3.923588
36.700000 -101.900000 3.933449
37.000000 -101.900000 3.932495
37.300000 -101.900000 3.926029
37.600000 -101.900000 3.921425
37.900000 -101.900000 3.920580
38.200000 -101.900000 3.922451
38.500000 -101.900000 3.925514
38.800000 -101.900000 3.929053
39.100000 -101.900000 3.933351
39.400000 -101.900000 3.938616
39.700000 -101.900000 3.944736
40.000000 -101.900000 3.949029
40.300000 -101.900000 3.950918
40.600000 -101.900000 3.952869
40.900000 -101.900000 3.949746
41.200000 -101.900000 3.942249
41.500000 -101.900000 3.930620
41.800000 -101.900000 3.922767
42.100000 -101.900000 3.914857
42.400000 -101.900000 3.908017
42.700000 -101.900000 3.902931
43.000000 -101.900000 3.898930
43.300000 -101.900000 3.904214
43.600000 -101.900000 3.920469
43.900000 -101.900000 3.941247
44.200000 -101.900000 3.959584
44.500000 -101.900000 3.971545
44.800000 -101.900000 3.979611
45.100000 -101.900000 3.978918
45.400000 -101.900000 3.977448
45.700000 -101.900000 3.971901
46.000000 -101.900000 3.961300
46.300000 -101.900000 3.951322
46.600000 -101.900000 3.944776
46.900000 -101.900000 3.944273
47.200000 -101.900000 3.950341
47.500000 -101.900000 3.954641
47.800000 -101.900000 3.956239
48.100000 -101.900000 3.955933
48.400000 -101.900000 3.961660
48.700000 -101.900000 3.969235
30.100000 -101.600000 3.866134
30.400000 -101.600000 3.880480
30.700000 -101.600000 3.903819
31.000000 -101.600000 3.930026
31.300000 -101.600000 3.949496
31.600000 -101.600000 3.959905
31.900000 -101.600000 3.956921
32.200000 -101.600000 3.948537
32.500000 -101.600000 3.940106
32.800000 -101.600000 3.938311
33.100000 -101.600000 3.945574
33.400000 -101.600000 3.948275
33.700000 -101.600000 3.941297
34.000000 -101.600000 3.928456
34.300000 -101.600000 3.913372
34.600000 -101.600000 3.897654
34.900000 -101.600000 3.882862
35.200000 -101.600000 3.873390
35.500000 -101.600000 3.875114
35.800000 -101.600000 3.888698
36.100000 -101.600000 3.907833
36.400000 -101.600000 3.927348
36.700000 -101.600000 3.939197
37.000000 -101.600000 3.936810
37.300000 -101.600000 3.930318
37.600000 -101.600000 3.925896
37.900000 -101.600000 3.928433
38.200000 -101.600000 3.934692
38.500000 -101.600000 3.940985
38.800000 -101.600000 3.948585
39.100000 -101.600000 3.951140
39.400000 -101.600000 3.951026
39.700000 -101.600000 3.952331
40.000000 -101.600000 3.953298
40.300000 -101.600000 3.956075
40.600000 -101.600000 3.957121
40.900000 -101.600000 3.956631
41.200000 -101.600000 3.948303
41.500000 -101.600000 3.937936
41.800000 -101.600000 3.927497
42.100000 -101.600000 3.917687
42.400000 -101.600000 3.908440
42.700000 -101.600000 3.903843
43.000000 -101.600000 3.904499
43.300000 -101.600000 3.910720
43.600000 -101.600000 3.928836
43.900000 -101.600000 3.951810
44.200000 -101.600000 3.966270
44.500000 -101.600000 3.980145
44.800000 -101.600000 3.982692
45.100000 -101.600000 3.980747
45.400000 -101.600000 3.974884
45.700000 -101.600000 3.969456
46.000000 -101.600000 3.963696
46.300000 -101.600000 3.954270
46.600000 -101.600000 3.946952
46.900000 -101.600000 3.943561
47.200000 -101.600000 3.945188
47.500000 -101.600000 3.948302
47.800000 -101.600000 3.949218
48.100000 -101.600000 3.947985
48.400000 -101.600000 3.953611
48.700000 -101.600000 3.964258
29.800000 -101.300000 3.875078
30.100000 -101.300000 3.871873
30.400000 -101.300000 3.879194
30.700000 -101.300000 3.898982
31.000000 -101.300000 3.924112
31.300000 -101.300000 3.948466
31.600000 -101.300000 3.963736
31.900000 -101.300000 3.966912
32.200000 -101.300000 3.961904
32.500000 -101.300000 3.953759
32.800000 -101.300000 3.948644
33.100000 -101.300000 3.952258
33.400000 -101.300000 3.952508
33.700000 -101.300000 3.944823
34.000000 -101.300000 3.931004
34.300000 -101.300000 3.914812
34.600000 -101.300000 3.896157
34.900000 -101.300000 3.878123
35.200000 -101.300000 3.867629
35.500000 -101.300000 3.869581
35.800000 -101.300000 3.886328
36.100000 -101.300000 3.907803
36.400000 -101.300000 3.930665
36.700000 -101.300000 3.945380
37.000000 -101.300000 3.945719
37.300000 -101.300000 3.936756
37.600000 -101.300000 3.932599
37.900000 -101.300000 3.935873
38.200000 -101.300000 3.944245
38.500000 -101.300000 3.954084
38.800000 -101.300000 3.961728
39.100000 -101.300000 3.964897
39.400000 -101.300000 3.961143
39.700000 -101.300000 3.957983
40.000000 -101.300000 3.956974
40.300000 -101.300000 3.956940
40.600000 -101.300000 3.959422
40.900000 -101.300000 3.958959
41.200000 -101.300000 3.954273
41.500000 -101.300000 3.944651
41.800000 -101.300000 3.933166
42.100000 -101.300000 3.921337
42.400000 -101.300000 3.911521
42.700000 -101.300000 3.907675
43.000000 -101.300000 3.909360
43.300000 -101.300000 3.918018
43.600000 -101.300000 3.935916
43.900000 -101.300000 3.956782
44.200000 -101.300000 3.974743
44.500000 -101.300000 3.987915
44.800000 -101.300000 3.993034
45.100000 -101.300000 3.987430
45.400000 -101.300000 3.980519
45.700000 -101.300000 3.976580
46.000000 -101.300000 3.969150
46.300000 -101.300000 3.963278
46.600000 -101.300000 3.955161
46.900000 -101.300000 3.948296
47.200000 -101.300000 3.944596
47.500000 -101.300000 3.944746
48.100000 -101.300000 3.941458
48.400000 -101.300000 3.948123
48.700000 -101.300000 3.959049
29.500000 -101.000000 3.885308
29.800000 -101.000000 3.884004
30.100000 -101.000000 3.882241
30.400000 -101.000000 3.885182
30.700000 -101.000000 3.899464
31.000000 -101.000000 3.921413
31.300000 -101.000000 3.947361
31.600000 -101.000000 3.967061
31.900000 -101.000000 3.975633
32.200000 -101.000000 3.972675
32.500000 -101.000000 3.963410
32.800000 -101.000000 3.956038
33.100000 -101.000000 3.954590
33.400000 -101.000000 3.952893
33.700000 -101.000000 3.946138
34.000000 -101.000000 3.935867
34.300000 -101.000000 3.918790
34.600000 -101.000000 3.901342
34.900000 -101.000000 3.882885
35.200000 -101.000000 3.869124
35.500000 -101.000000 3.872152
35.800000 -101.000000 3.887460
36.100000 -101.000000 3.911512
36.400000 -101.000000 3.934726
36.700000 -101.000000 3.952104
37.000000 -101.000000 3.954734
37.300000 -101.000000 3.947832
37.600000 -101.000000 3.941703
37.900000 -101.000000 3.945046
38.200000 -101.000000 3.952510
38.500000 -101.000000 3.961985
38.800000 -101.000000 3.969574
39.100000 -101.000000 3.972124
39.400000 -101.000000 3.968152
39.700000 -101.000000 3.964631
40.000000 -101.000000 3.959397
40.300000 -101.000000 3.958327
40.600000 -101.000000 3.959558
40.900000 -101.000000 3.960313
41.200000 -101.000000 3.957020
41.500000 -101.000000 3.948433
41.800000 -101.000000 3.938452
42.100000 -101.000000 3.927494
42.400000 -101.000000 3.917310
42.700000 -101.000000 3.915309
43.000000 -101.000000 3.917692
43.300000 -101.000000 3.927035
43.600000 -101.000000 3.940508
43.900000 -101.000000 3.960429
44.200000 -101.000000 3.977840
44.500000 -101.000000 3.994024
44.800000 -101.000000 4.000531
45.100000 -101.000000 3.996737
45.400000 -101.000000 3.991975
45.700000 -101.000000 3.986492
46.000000 -101.000000 3.981765
46.300000 -101.000000 3.976125
46.600000 -101.000000 3.969513
46.900000 -101.000000 3.961983
47.200000 -101.000000 3.954621
47.500000 -101.000000 3.950132
47.800000 -101.000000 3.947178
48.100000 -101.000000 3.943505
48.400000 -101.000000 3.949440
48.700000 -101.000000 3.959986
29.200000 -100.700000 3.889461
29.500000 -100.700000 3.888502
29.800000 -100.700000 3.893775
30.100000 -100.700000 3.897456
30.400000 -100.700000 3.900657
30.700000 -100.700000 3.910741
31.000000 -100.700000 3.927839
31.300000 -100.700000 3.950301
31.600000 -100.700000 3.971028
31.900000 -100.700000 3.981646
32.200000 -100.700000 3.980076
32.500000 -100.700000 3.970854
32.800000 -100.700000 3.959774
33.100000 -100.700000 3.955655
33.400000 -100.700000 3.952263
33.700000 -100.700000 3.947578
34.000000 -100.700000 3.939227
34.300000 -100.700000 3.926668
34.600000 -100.700000 3.910431
34.900000 -100.700000 3.893035
35.200000 -100.700000 3.879298
35.500000 -100.700000 3.878348
35.800000 -100.700000 3.895454
36.100000 -100.700000 3.917681
36.400000 -100.700000 3.939214
36.700000 -100.700000 3.956688
37.000000 -100.700000 3.962086
37.300000 -100.700000 3.957426
37.600000 -100.700000 3.952820
37.900000 -100.700000 3.954207
38.200000 -100.700000 3.959612
38.500000 -100.700000 3.966185
38.800000 -100.700000 3.972154
39.100000 -100.700000 3.974616
39.400000 -100.700000 3.972174
39.700000 -100.700000 3.967070
40.000000 -100.700000 3.962345
40.300000 -100.700000 3.957862
40.600000 -100.700000 3.959871
40.900000 -100.700000 3.960105
41.200000 -100.700000 3.957017
41.500000 -100.700000 3.951845
41.800000 -100.700000 3.943094
42.100000 -100.700000 3.933065
42.400000 -100.700000 3.925097
42.700000 -100.700000 3.923643
43.000000 -100.700000 3.930275
43.300000 -100.700000 3.937419
43.600000 -100.700000 3.949647
43.900000 -100.700000 3.963745
44.200000 -100.700000 3.978950
44.500000 -100.700000 3.996470
44.800000 -100.700000 4.004869
45.100000 -100.700000 4.005079
45.400000 -100.700000 4.003343
45.700000 -100.700000 4.001187
46.000000 -100.700000 3.997719
46.300000 -100.700000 3.993779
46.600000 -100.700000 3.990550
46.900000 -100.700000 3.983264
47.200000 -100.700000 3.974577
47.500000 -100.700000 3.966934
47.800000 -100.700000 3.959240
48.100000 -100.700000 3.954477
48.400000 -100.700000 3.957987
48.700000 -100.700000 3.967895
28.900000 -100.400000 3.904495
29.200000 -100.400000 3.893421
29.500000 -100.400000 3.892316
29.800000 -100.400000 3.901801
30.100000 -100.400000 3.912712
30.400000 -100.400000 3.922086
30.700000 -100.400000 3.931596
31.000000 -100.400000 3.943965
31.300000 -100.400000 3.960984
31.600000 -100.400000 3.976915
31.900000 -100.400000 3.984346
32.200000 -100.400000 3.981337
32.500000 -100.400000 3.971334
32.800000 -100.400000 3.960780
33.100000 -100.400000 3.954240
33.400000 -100.400000 3.951504
33.700000 -100.400000 3.949147
34.000000 -100.400000 3.944595
34.300000 -100.400000 3.934562
34.600000 -100.400000 3.920211
34.900000 -100.400000 3.901794
35.200000 -100.400000 3.886303
35.500000 -100.400000 3.885059
35.800000 -100.400000 3.900958
36.100000 -100.400000 3.923436
36.400000 -100.400000 3.944791
36.700000 -100.400000 3.960284
37.000000 -100.400000 3.968060
37.300000 -100.400000 3.966851
37.600000 -100.400000 3.964841
37.900000 -100.400000 3.963929
38.200000 -100.400000 3.967677
38.500000 -100.400000 3.973101
38.800000 -100.400000 3.975873
39.100000 -100.400000 3.977725
39.400000 -100.400000 3.973913
39.700000 -100.400000 3.969560
40.000000 -100.400000 3.963018
40.300000 -100.400000 3.958926
40.600000 -100.400000 3.957457
40.900000 -100.400000 3.955882
41.200000 -100.400000 3.953624
41.500000 -100.400000 3.953266
41.800000 -100.400000 3.946541
42.100000 -100.400000 3.937401
42.400000 -100.400000 3.930108
42.700000 -100.400000 3.931557
43.000000 -100.400000 3.940891
43.300000 -100.400000 3.949525
43.600000 -100.400000 3.960674
43.900000 -100.400000 3.971397
44.200000 -100.400000 3.982368
44.500000 -100.400000 3.997654
44.800000 -100.400000 4.008519
45.100000 -100.400000 4.013480
45.400000 -100.400000 4.015138
45.700000 -100.400000 4.016951
46.000000 -100.400000 4.015995
46.300000 -100.400000 4.016409
46.600000 -100.400000 4.014528
46.900000 -100.400000 4.010363
47.200000 -100.400000 4.002176
47.500000 -100.400000 3.991824
47.800000 -100.400000 3.981623
48.100000 -100.400000 3.974588
48.400000 -100.400000 3.975735
48.700000 -100.400000 3.980176
28.000000 -100.100000 3.946236
28.300000 -100.100000 3.941199
28.600000 -100.100000 3.927288
28.900000 -100.100000 3.910195
29.200000 -100.100000 3.897340
29.500000 -100.100000 3.893933
29.800000 -100.100000 3.906630
30.100000 -100.100000 3.924838
30.400000 -100.100000 3.940623
30.700000 -100.100000 3.952605
31.000000 -100.100000 3.961719
31.300000 -100.100000 3.973835
31.600000 -100.100000 3.983761
31.900000 -100.100000 3.983831
32.200000 -100.100000 3.976499
32.500000 -100.100000 3.968192
32.800000 -100.100000 3.955732
33.100000 -100.100000 3.951020
33.400000 -100.100000 3.949453
33.700000 -100.100000 3.948888
34.000000 -100.100000 3.949130
34.300000 -100.100000 3.940871
34.600000 -100.100000 3.926287
34.900000 -100.100000 3.906334
35.200000 -100.100000 3.891045
35.500000 -100.100000 3.890356
35.800000 -100.100000 3.907111
36.100000 -100.100000 3.930773
36.400000 -100.100000 3.952817
36.700000 -100.100000 3.968396
37.000000 -100.100000 3.975787
37.300000 -100.100000 3.976384
37.600000 -100.100000 3.974597
37.900000 -100.100000 3.975858
38.200000 -100.100000 3.978718
38.500000 -100.100000 3.984391
38.800000 -100.100000 3.986313
39.100000 -100.100000 3.984323
39.400000 -100.100000 3.979915
39.700000 -100.100000 3.974300
40.000000 -100.100000 3.967234
40.300000 -100.100000 3.961407
40.600000 -100.100000 3.956276
40.900000 -100.100000 3.952671
41.200000 -100.100000 3.954072
41.500000 -100.100000 3.953384
41.800000 -100.100000 3.949011
42.100000 -100.100000 3.938051
42.400000 -100.100000 3.931229
42.700000 -100.100000 3.935323
43.000000 -100.100000 3.944718
43.300000 -100.100000 3.958584
43.600000 -100.100000 3.970954
43.900000 -100.100000 3.982625
44.200000 -100.100000 3.990856
44.500000 -100.100000 4.002235
44.800000 -100.100000 4.014820
45.100000 -100.100000 4.023446
45.400000 -100.100000 4.029283
45.700000 -100.100000 4.031619
46.000000 -100.100000 4.036642
46.300000 -100.100000 4.038397
46.600000 -100.100000 4.041466
46.900000 -100.100000 4.040486
47.200000 -100.100000 4.032231
47.500000 -100.100000 4.021071
47.800000 -100.100000 4.009453
48.100000 -100.100000 3.998490
48.400000 -100.100000 3.994612
48.700000 -100.100000 3.995199
28.000000 -99.800000 3.942438
28.300000 -99.800000 3.939480
28.600000 -99.800000 3.931644
28.900000 -99.800000 3.918059
29.200000 -99.800000 3.904565
29.500000 -99.800000 3.902225
29.800000 -99.800000 3.911572
30.100000 -99.800000 3.934024
30.400000 -99.800000 3.955793
30.700000 -99.800000 3.971704
31.000000 -99.800000 3.979948
31.300000 -99.800000 3.987119
31.600000 -99.800000 3.988960
31.900000 -99.800000 3.984881
32.200000 -99.800000 3.977063
32.500000 -99.800000 3.964843
32.800000 -99.800000 3.954742
33.100000 -99.800000 3.948295
33.400000 -99.800000 3.947517
33.700000 -99.800000 3.949506
34.000000 -99.800000 3.948511
34.300000 -99.800000 3.942865
34.600000 -99.800000 3.925152
34.900000 -99.800000 3.906371
35.200000 -99.800000 3.893224
35.500000 -99.800000 3.896383
35.800000 -99.800000 3.916111
36.100000 -99.800000 3.941432
36.400000 -99.800000 3.963338
36.700000 -99.800000 3.978644
37.000000 -99.800000 3.982537
37.300000 -99.800000 3.983169
37.600000 -99.800000 3.983450
37.900000 -99.800000 3.986299
38.200000 -99.800000 3.992039
38.500000 -99.800000 3.998763
38.800000 -99.800000 4.000549
39.100000 -99.800000 3.998618
39.400000 -99.800000 3.993122
39.700000 -99.800000 3.985429
40.000000 -99.800000 3.978627
40.300000 -99.800000 3.966420
40.600000 -99.800000 3.959392
40.900000 -99.800000 3.956377
41.200000 -99.800000 3.956576
41.500000 -99.800000 3.957341
41.800000 -99.800000 3.948565
42.100000 -99.800000 3.939146
42.400000 -99.800000 3.932921
42.700000 -99.800000 3.934540
43.000000 -99.800000 3.949438
43.300000 -99.800000 3.960869
43.600000 -99.800000 3.979027
43.900000 -99.800000 3.992445
44.200000 -99.800000 4.001684
44.500000 -99.800000 4.011731
44.800000 -99.800000 4.021060
45.100000 -99.800000 4.032957
45.400000 -99.800000 4.040044
45.700000 -99.800000 4.047596
46.000000 -99.800000 4.054860
46.300000 -99.800000 4.061996
46.600000 -99.800000 4.067288
46.900000 -99.800000 4.068023
47.200000 -99.800000 4.061323
47.500000 -99.800000 4.049226
47.800000 -99.800000 4.035065
48.100000 -99.800000 4.022694
48.400000 -99.800000 4.011336
48.700000 -99.800000 4.008967
27.400000 -99.500000 3.880662
27.700000 -99.500000 3.897989
28.000000 -99.500000 3.924206
28.300000 -99.500000 3.934250
28.600000 -99.500000 3.933860
28.900000 -99.500000 3.925468
29.200000 -99.500000 3.918178
