44.800000 -109.100000 3.957646
45.100000 -109.100000 3.972997
45.400000 -109.100000 3.979967
45.700000 -109.100000 3.979295
46.000000 -109.100000 3.972746
46.300000 -109.100000 3.964198
46.600000 -109.100000 3.957231
46.900000 -109.100000 3.954442
47.200000 -109.100000 3.957745
47.500000 -109.100000 3.966831
47.800000 -109.100000 3.978130
48.100000 -109.100000 3.990473
48.400000 -109.100000 4.001890
48.700000 -109.100000 4.010429
31.300000 -108.800000 3.793104
31.600000 -108.800000 3.793629
31.900000 -108.800000 3.794217
32.200000 -108.800000 3.795951
32.500000 -108.800000 3.793901
32.800000 -108.800000 3.786397
33.100000 -108.800000 3.772409
33.400000 -108.800000 3.757628
33.700000 -108.800000 3.745550
34.000000 -108.800000 3.740003
34.300000 -108.800000 3.743723
34.600000 -108.800000 3.759945
34.900000 -108.800000 3.786930
35.200000 -108.800000 3.819170
35.500000 -108.800000 3.849694
35.800000 -108.800000 3.873439
36.100000 -108.800000 3.885183
36.400000 -108.800000 3.880230
36.700000 -108.800000 3.862481
37.000000 -108.800000 3.839052
37.300000 -108.800000 3.821822
37.600000 -108.800000 3.817540
37.900000 -108.800000 3.829108
38.200000 -108.800000 3.848387
38.500000 -108.800000 3.866317
38.800000 -108.800000 3.877018
39.100000 -108.800000 3.882049
39.400000 -108.800000 3.882823
39.700000 -108.800000 3.883278
40.000000 -108.800000 3.885934
40.300000 -108.800000 3.892603
40.600000 -108.800000 3.902168
40.900000 -108.800000 3.915197
41.200000 -108.800000 3.929367
41.500000 -108.800000 3.941934
41.800000 -108.800000 3.953192
42.100000 -108.800000 3.959528
42.400000 -108.800000 3.965131
42.700000 -108.800000 3.960206
43.000000 -108.800000 3.948947
43.300000 -108.800000 3.931433
43.600000 -108.800000 3.922651
43.900000 -108.800000 3.926784
44.200000 -108.800000 3.945039
44.500000 -108.800000 3.969121
44.800000 -108.800000 3.988069
45.100000 -108.800000 3.996907
45.400000 -108.800000 3.997002
45.700000 -108.800000 3.990477
46.000000 -108.800000 3.979521
46.300000 -108.800000 3.969365
46.600000 -108.800000 3.962711
46.900000 -108.800000 3.961464
47.200000 -108.800000 3.965346
47.500000 -108.800000 3.972974
47.800000 -108.800000 3.982250
48.100000 -108.800000 3.991273
48.400000 -108.800000 4.000882
48.700000 -108.800000 4.007752
31.300000 -108.500000 3.785628
31.600000 -108.500000 3.785544
31.900000 -108.500000 3.785636
32.200000 -108.500000 3.787267
32.500000 -108.500000 3.785427
32.800000 -108.500000 3.778428
33.100000 -108.500000 3.765841
33.400000 -108.500000 3.752147
33.700000 -108.500000 3.740315
34.000000 -108.500000 3.733618
34.300000 -108.500000 3.735387
34.600000 -108.500000 3.748807
34.900000 -108.500000 3.773438
35.200000 -108.500000 3.804952
35.500000 -108.500000 3.836514
35.800000 -108.500000 3.862432
36.100000 -108.500000 3.876804
36.400000 -108.500000 3.873683
36.700000 -108.500000 3.855043
37.000000 -108.500000 3.827075
37.300000 -108.500000 3.802520
37.600000 -108.500000 3.791133
37.900000 -108.500000 3.797421
38.200000 -108.500000 3.815293
38.500000 -108.500000 3.834339
38.800000 -108.500000 3.847222
39.100000 -108.500000 3.853163
39.400000 -108.500000 3.854763
39.700000 -108.500000 3.856812
40.000000 -108.500000 3.862658
40.300000 -108.500000 3.873263
40.600000 -108.500000 3.887986
40.900000 -108.500000 3.904629
41.200000 -108.500000 3.921170
41.500000 -108.500000 3.934031
41.800000 -108.500000 3.948435
42.100000 -108.500000 3.957505
42.400000 -108.500000 3.964399
42.700000 -108.500000 3.961481
43.000000 -108.500000 3.952452
43.300000 -108.500000 3.943763
43.600000 -108.500000 3.943455
43.900000 -108.500000 3.953817
44.200000 -108.500000 3.973603
44.500000 -108.500000 3.994907
44.800000 -108.500000 4.011212
45.100000 -108.500000 4.014471
45.400000 -108.500000 4.008464
45.700000 -108.500000 3.997046
46.000000 -108.500000 3.983540
46.300000 -108.500000 3.972945
46.600000 -108.500000 3.967284
46.900000 -108.500000 3.968322
47.200000 -108.500000 3.972792
47.500000 -108.500000 3.981091
47.800000 -108.500000 3.988626
48.100000 -108.500000 3.996840
48.400000 -108.500000 4.004442
48.700000 -108.500000 4.009611
31.600000 -108.200000 3.781981
31.900000 -108.200000 3.782543
32.200000 -108.200000 3.782850
32.500000 -108.200000 3.780170
32.800000 -108.200000 3.773906
33.100000 -108.200000 3.763248
33.400000 -108.200000 3.750909
33.700000 -108.200000 3.739034
34.000000 -108.200000 3.731238
34.300000 -108.200000 3.730382
34.600000 -108.200000 3.740041
34.900000 -108.200000 3.760499
35.200000 -108.200000 3.788731
35.500000 -108.200000 3.818354
35.800000 -108.200000 3.844143
36.100000 -108.200000 3.860181
36.400000 -108.200000 3.860084
36.700000 -108.200000 3.842828
37.000000 -108.200000 3.814437
37.300000 -108.200000 3.786553
37.600000 -108.200000 3.770260
37.900000 -108.200000 3.770608
38.200000 -108.200000 3.783599
38.500000 -108.200000 3.799933
38.800000 -108.200000 3.811385
39.100000 -108.200000 3.816533
39.400000 -108.200000 3.818778
39.700000 -108.200000 3.823314
40.000000 -108.200000 3.833244
40.300000 -108.200000 3.849040
40.600000 -108.200000 3.870023
40.900000 -108.200000 3.892150
41.200000 -108.200000 3.912941
41.500000 -108.200000 3.929338
41.800000 -108.200000 3.943914
42.100000 -108.200000 3.955017
42.400000 -108.200000 3.958603
42.700000 -108.200000 3.958565
43.000000 -108.200000 3.953248
43.300000 -108.200000 3.954120
43.600000 -108.200000 3.962328
43.900000 -108.200000 3.978884
44.200000 -108.200000 3.999464
44.500000 -108.200000 4.019370
44.800000 -108.200000 4.030157
45.100000 -108.200000 4.029129
45.400000 -108.200000 4.017820
45.700000 -108.200000 4.001523
46.000000 -108.200000 3.985632
46.300000 -108.200000 3.974016
46.600000 -108.200000 3.969632
46.900000 -108.200000 3.971904
47.200000 -108.200000 3.978178
47.500000 -108.200000 3.986966
47.800000 -108.200000 3.995833
48.100000 -108.200000 4.003461
48.400000 -108.200000 4.010823
48.700000 -108.200000 4.015090
31.900000 -107.900000 3.781031
32.200000 -107.900000 3.779908
32.500000 -107.900000 3.776063
32.800000 -107.900000 3.771152
33.100000 -107.900000 3.763989
33.400000 -107.900000 3.755112
33.700000 -107.900000 3.744398
34.000000 -107.900000 3.735407
34.300000 -107.900000 3.731131
34.600000 -107.900000 3.735679
34.900000 -107.900000 3.749604
35.200000 -107.900000 3.771694
35.500000 -107.900000 3.796655
35.800000 -107.900000 3.820147
36.100000 -107.900000 3.836553
36.400000 -107.900000 3.839486
36.700000 -107.900000 3.826480
37.000000 -107.900000 3.802299
37.300000 -107.900000 3.776143
37.600000 -107.900000 3.758048
37.900000 -107.900000 3.752939
38.200000 -107.900000 3.759079
38.500000 -107.900000 3.769080
38.800000 -107.900000 3.775830
39.100000 -107.900000 3.778373
39.400000 -107.900000 3.781008
39.700000 -107.900000 3.788513
40.000000 -107.900000 3.803398
40.300000 -107.900000 3.825017
40.600000 -107.900000 3.852570
40.900000 -107.900000 3.881369
41.200000 -107.900000 3.907671
41.500000 -107.900000 3.926969
41.800000 -107.900000 3.940576
42.100000 -107.900000 3.950694
42.400000 -107.900000 3.954934
42.700000 -107.900000 3.956867
43.000000 -107.900000 3.957387
43.300000 -107.900000 3.964991
43.600000 -107.900000 3.979700
43.900000 -107.900000 4.000166
44.200000 -107.900000 4.019591
44.500000 -107.900000 4.036893
44.800000 -107.900000 4.043950
45.100000 -107.900000 4.040143
45.400000 -107.900000 4.025757
45.700000 -107.900000 4.006257
46.000000 -107.900000 3.987727
46.300000 -107.900000 3.974837
46.600000 -107.900000 3.970326
46.900000 -107.900000 3.972917
47.200000 -107.900000 3.980844
47.500000 -107.900000 3.989778
47.800000 -107.900000 4.000323
48.100000 -107.900000 4.008801
48.400000 -107.900000 4.015671
48.700000 -107.900000 4.019770
31.900000 -107.600000 3.779716
32.200000 -107.600000 3.776998
32.500000 -107.600000 3.771842
32.800000 -107.600000 3.768668
33.100000 -107.600000 3.766020
33.400000 -107.600000 3.761866
33.700000 -107.600000 3.753473
34.000000 -107.600000 3.743772
34.300000 -107.600000 3.736228
34.600000 -107.600000 3.735219
34.900000 -107.600000 3.741335
35.200000 -107.600000 3.755010
35.500000 -107.600000 3.772725
35.800000 -107.600000 3.791640
36.100000 -107.600000 3.806657
36.400000 -107.600000 3.812054
36.700000 -107.600000 3.805207
37.000000 -107.600000 3.788644
37.300000 -107.600000 3.768880
37.600000 -107.600000 3.752525
37.900000 -107.600000 3.744452
38.200000 -107.600000 3.743679
38.500000 -107.600000 3.746285
38.800000 -107.600000 3.747316
39.100000 -107.600000 3.746889
39.400000 -107.600000 3.749120
39.700000 -107.600000 3.758533
40.000000 -107.600000 3.777803
40.300000 -107.600000 3.805486
40.600000 -107.600000 3.839230
40.900000 -107.600000 3.874002
41.200000 -107.600000 3.904843
41.500000 -107.600000 3.926617
41.800000 -107.600000 3.940184
42.100000 -107.600000 3.949340
42.400000 -107.600000 3.955788
42.700000 -107.600000 3.960517
43.000000 -107.600000 3.966045
43.300000 -107.600000 3.976451
43.600000 -107.600000 3.993303
43.900000 -107.600000 4.012613
44.200000 -107.600000 4.029816
44.500000 -107.600000 4.043713
44.800000 -107.600000 4.050268
45.100000 -107.600000 4.045663
45.400000 -107.600000 4.030640
45.700000 -107.600000 4.010763
46.000000 -107.600000 3.990484
46.300000 -107.600000 3.976235
46.600000 -107.600000 3.970457
46.900000 -107.600000 3.972515
47.200000 -107.600000 3.980117
47.500000 -107.600000 3.989623
47.800000 -107.600000 4.000630
48.100000 -107.600000 4.010326
48.400000 -107.600000 4.017991
48.700000 -107.600000 4.021171
31.900000 -107.300000 3.777378
32.200000 -107.300000 3.774056
32.500000 -107.300000 3.767751
32.800000 -107.300000 3.765943
33.100000 -107.300000 3.766644
33.400000 -107.300000 3.767234
33.700000 -107.300000 3.763423
34.000000 -107.300000 3.754692
34.300000 -107.300000 3.745170
34.600000 -107.300000 3.738275
34.900000 -107.300000 3.736510
35.200000 -107.300000 3.741080
35.500000 -107.300000 3.750127
35.800000 -107.300000 3.762797
36.100000 -107.300000 3.774366
36.400000 -107.300000 3.781240
36.700000 -107.300000 3.780388
37.000000 -107.300000 3.772517
37.300000 -107.300000 3.760922
37.600000 -107.300000 3.749602
37.900000 -107.300000 3.742238
38.200000 -107.300000 3.738137
38.500000 -107.300000 3.735465
38.800000 -107.300000 3.732386
39.100000 -107.300000 3.730348
39.400000 -107.300000 3.732365
39.700000 -107.300000 3.742096
40.000000 -107.300000 3.762048
40.300000 -107.300000 3.791536
40.600000 -107.300000 3.828182
40.900000 -107.300000 3.866628
41.200000 -107.300000 3.901273
41.500000 -107.300000 3.925901
41.800000 -107.300000 3.941082
42.100000 -107.300000 3.951694
42.400000 -107.300000 3.960296
42.700000 -107.300000 3.968564
43.000000 -107.300000 3.977210
43.300000 -107.300000 3.987704
43.600000 -107.300000 4.002002
43.900000 -107.300000 4.015623
44.200000 -107.300000 4.028439
44.500000 -107.300000 4.039462
44.800000 -107.300000 4.047929
45.100000 -107.300000 4.046153
45.400000 -107.300000 4.033290
45.700000 -107.300000 4.014686
46.000000 -107.300000 3.994938
46.300000 -107.300000 3.979474
46.600000 -107.300000 3.971977
46.900000 -107.300000 3.972239
47.200000 -107.300000 3.978529
47.500000 -107.300000 3.987736
47.800000 -107.300000 3.997996
48.100000 -107.300000 4.009007
48.400000 -107.300000 4.016642
48.700000 -107.300000 4.020967
31.900000 -107.000000 3.777163
32.200000 -107.000000 3.772876
32.500000 -107.000000 3.764827
32.800000 -107.000000 3.763019
33.100000 -107.000000 3.765751
33.400000 -107.000000 3.770461
33.700000 -107.000000 3.770552
34.000000 -107.000000 3.763823
34.300000 -107.000000 3.753775
34.600000 -107.000000 3.743210
34.900000 -107.000000 3.735443
35.200000 -107.000000 3.731288
35.500000 -107.000000 3.731783
35.800000 -107.000000 3.737073
36.100000 -107.000000 3.744359
36.400000 -107.000000 3.751506
36.700000 -107.000000 3.754960
37.000000 -107.000000 3.754643
37.300000 -107.000000 3.751227
37.600000 -107.000000 3.747463
37.900000 -107.000000 3.744196
38.200000 -107.000000 3.740889
38.500000 -107.000000 3.736923
38.800000 -107.000000 3.732960
39.100000 -107.000000 3.731819
39.400000 -107.000000 3.734036
39.700000 -107.000000 3.743207
40.000000 -107.000000 3.760280
40.300000 -107.000000 3.787233
40.600000 -107.000000 3.822420
40.900000 -107.000000 3.861405
41.200000 -107.000000 3.897360
41.500000 -107.000000 3.924352
41.800000 -107.000000 3.942154
42.100000 -107.000000 3.955155
42.400000 -107.000000 3.966707
42.700000 -107.000000 3.978258
43.000000 -107.000000 3.988462
43.300000 -107.000000 3.997700
43.600000 -107.000000 4.006186
43.900000 -107.000000 4.011881
44.200000 -107.000000 4.018486
44.500000 -107.000000 4.028851
44.800000 -107.000000 4.040115
45.100000 -107.000000 4.043981
45.400000 -107.000000 4.035738
45.700000 -107.000000 4.019706
46.000000 -107.000000 4.001367
46.300000 -107.000000 3.985166
46.600000 -107.000000 3.976128
46.900000 -107.000000 3.974804
47.200000 -107.000000 3.978186
47.500000 -107.000000 3.986365
47.800000 -107.000000 3.996117
48.100000 -107.000000 4.006416
48.400000 -107.000000 4.014906
48.700000 -107.000000 4.018931
31.900000 -106.700000 3.785692
32.200000 -106.700000 3.774824
32.500000 -106.700000 3.764406
32.800000 -106.700000 3.761458
33.100000 -106.700000 3.764238
33.400000 -106.700000 3.770597
33.700000 -106.700000 3.773570
34.000000 -106.700000 3.769278
34.300000 -106.700000 3.760587
34.600000 -106.700000 3.748968
34.900000 -106.700000 3.738029
35.200000 -106.700000 3.727961
35.500000 -106.700000 3.721182
35.800000 -106.700000 3.719511
36.100000 -106.700000 3.722253
36.400000 -106.700000 3.728652
36.700000 -106.700000 3.734914
37.000000 -106.700000 3.739934
37.300000 -106.700000 3.742888
37.600000 -106.700000 3.746604
37.900000 -106.700000 3.749530
38.200000 -106.700000 3.750729
38.500000 -106.700000 3.749402
38.800000 -106.700000 3.747618
39.100000 -106.700000 3.749183
39.400000 -106.700000 3.752610
39.700000 -106.700000 3.760238
40.000000 -106.700000 3.772072
40.300000 -106.700000 3.792573
40.600000 -106.700000 3.822807
40.900000 -106.700000 3.859399
41.200000 -106.700000 3.895023
41.500000 -106.700000 3.922971
41.800000 -106.700000 3.943010
42.100000 -106.700000 3.958556
42.400000 -106.700000 3.972996
42.700000 -106.700000 3.986572
43.000000 -106.700000 3.997894
43.300000 -106.700000 4.006164
43.600000 -106.700000 4.008925
43.900000 -106.700000 4.007622
44.200000 -106.700000 4.008209
44.500000 -106.700000 4.018136
44.800000 -106.700000 4.033128
45.100000 -106.700000 4.042023
45.400000 -106.700000 4.039269
45.700000 -106.700000 4.026487
46.000000 -106.700000 4.009637
46.300000 -106.700000 3.993738
46.600000 -106.700000 3.982718
46.900000 -106.700000 3.978599
47.200000 -106.700000 3.980210
47.500000 -106.700000 3.986209
47.800000 -106.700000 3.995541
48.100000 -106.700000 4.005499
48.400000 -106.700000 4.014098
48.700000 -106.700000 4.018661
31.600000 -106.400000 3.810207
31.900000 -106.400000 3.798657
32.200000 -106.400000 3.781601
32.500000 -106.400000 3.768156
32.800000 -106.400000 3.763117
33.100000 -106.400000 3.764082
33.400000 -106.400000 3.769621
33.700000 -106.400000 3.772800
34.000000 -106.400000 3.772204
34.300000 -106.400000 3.766992
34.600000 -106.400000 3.757887
34.900000 -106.400000 3.745973
35.200000 -106.400000 3.732736
35.500000 -106.400000 3.720766
35.800000 -106.400000 3.713165
36.100000 -106.400000 3.710944
36.400000 -106.400000 3.715314
36.700000 -106.400000 3.722756
37.000000 -106.400000 3.731195
37.300000 -106.400000 3.739393
37.600000 -106.400000 3.749107
37.900000 -106.400000 3.758507
38.200000 -106.400000 3.765577
38.500000 -106.400000 3.769945
38.800000 -106.400000 3.773167
39.100000 -106.400000 3.777229
39.400000 -106.400000 3.780745
39.700000 -106.400000 3.785345
40.000000 -106.400000 3.792615
40.300000 -106.400000 3.807043
40.600000 -106.400000 3.831440
40.900000 -106.400000 3.863876
41.200000 -106.400000 3.897545
41.500000 -106.400000 3.924853
41.800000 -106.400000 3.945724
42.100000 -106.400000 3.962480
42.400000 -106.400000 3.978069
42.700000 -106.400000 3.992690
43.000000 -106.400000 4.004910
43.300000 -106.400000 4.012200
43.600000 -106.400000 4.011703
43.900000 -106.400000 4.006204
44.200000 -106.400000 4.001859
44.500000 -106.400000 4.011013
44.800000 -106.400000 4.027983
45.100000 -106.400000 4.042395
45.400000 -106.400000 4.044559
45.700000 -106.400000 4.035116
46.000000 -106.400000 4.020010
46.300000 -106.400000 4.003825
46.600000 -106.400000 3.991480
46.900000 -106.400000 3.984491
47.200000 -106.400000 3.984018
47.500000 -106.400000 3.988506
47.800000 -106.400000 3.995748
48.100000 -106.400000 4.005577
48.400000 -106.400000 4.014456
48.700000 -106.400000 4.019217
31.600000 -106.100000 3.827808
31.900000 -106.100000 3.811925
32.200000 -106.100000 3.792665
32.500000 -106.100000 3.778384
32.800000 -106.100000 3.772919
33.100000 -106.100000 3.771489
33.400000 -106.100000 3.774930
33.700000 -106.100000 3.776450
34.000000 -106.100000 3.778225
34.300000 -106.100000 3.775630
34.600000 -106.100000 3.770322
34.900000 -106.100000 3.760501
35.200000 -106.100000 3.746966
35.500000 -106.100000 3.731403
35.800000 -106.100000 3.718360
36.100000 -106.100000 3.711046
36.400000 -106.100000 3.711969
36.700000 -106.100000 3.718382
37.000000 -106.100000 3.727790
37.300000 -106.100000 3.739004
37.600000 -106.100000 3.753060
37.900000 -106.100000 3.768140
38.200000 -106.100000 3.781232
38.500000 -106.100000 3.791918
38.800000 -106.100000 3.800441
39.100000 -106.100000 3.807193
39.400000 -106.100000 3.810608
39.700000 -106.100000 3.812755
40.000000 -106.100000 3.816436
40.300000 -106.100000 3.826753
40.600000 -106.100000 3.846200
40.900000 -106.100000 3.874268
41.200000 -106.100000 3.905003
41.500000 -106.100000 3.930676
41.800000 -106.100000 3.950929
42.100000 -106.100000 3.966125
42.400000 -106.100000 3.981326
42.700000 -106.100000 3.994229
43.000000 -106.100000 4.006844
43.300000 -106.100000 4.013492
43.600000 -106.100000 4.013204
43.900000 -106.100000 4.005813
44.200000 -106.100000 4.001420
44.500000 -106.100000 4.008557
44.800000 -106.100000 4.026494
45.100000 -106.100000 4.045042
45.400000 -106.100000 4.051960
45.700000 -106.100000 4.044824
46.000000 -106.100000 4.030610
46.300000 -106.100000 4.013702
46.600000 -106.100000 4.000077
46.900000 -106.100000 3.990321
47.200000 -106.100000 3.988370
47.500000 -106.100000 3.989809
47.800000 -106.100000 3.995859
48.100000 -106.100000 4.003968
48.400000 -106.100000 4.013361
48.700000 -106.100000 4.019411
31.300000 -105.800000 3.854764
31.600000 -105.800000 3.842419
31.900000 -105.800000 3.825783
32.200000 -105.800000 3.808546
32.500000 -105.800000 3.795650
32.800000 -105.800000 3.788831
33.100000 -105.800000 3.784708
33.400000 -105.800000 3.785759
33.700000 -105.800000 3.787372
34.000000 -105.800000 3.791481
34.300000 -105.800000 3.791104
34.600000 -105.800000 3.788699
34.900000 -105.800000 3.781097
35.200000 -105.800000 3.768038
35.500000 -105.800000 3.750889
35.800000 -105.800000 3.733461
36.100000 -105.800000 3.721053
36.400000 -105.800000 3.717246
36.700000 -105.800000 3.720807
37.000000 -105.800000 3.729661
37.300000 -105.800000 3.742272
37.600000 -105.800000 3.758487
37.900000 -105.800000 3.777023
38.200000 -105.800000 3.794776
38.500000 -105.800000 3.810835
38.800000 -105.800000 3.824022
39.100000 -105.800000 3.833217
39.400000 -105.800000 3.837829
39.700000 -105.800000 3.839340
40.000000 -105.800000 3.841102
40.300000 -105.800000 3.849206
40.600000 -105.800000 3.865544
40.900000 -105.800000 3.889803
41.200000 -105.800000 3.916556
41.500000 -105.800000 3.939871
41.800000 -105.800000 3.957817
42.100000 -105.800000 3.969592
42.400000 -105.800000 3.980833
42.700000 -105.800000 3.991682
43.000000 -105.800000 4.001490
43.300000 -105.800000 4.008944
43.600000 -105.800000 4.010035
43.900000 -105.800000 4.005347
44.200000 -105.800000 4.002898
44.500000 -105.800000 4.009948
44.800000 -105.800000 4.028329
45.100000 -105.800000 4.049029
45.400000 -105.800000 4.059648
45.700000 -105.800000 4.054786
46.000000 -105.800000 4.040149
46.300000 -105.800000 4.022238
46.600000 -105.800000 4.005980
46.900000 -105.800000 3.995585
47.200000 -105.800000 3.990294
47.500000 -105.800000 3.990352
47.800000 -105.800000 3.993492
48.100000 -105.800000 4.000270
48.400000 -105.800000 4.010389
48.700000 -105.800000 4.016746
31.000000 -105.500000 3.865743
31.300000 -105.500000 3.861691
31.600000 -105.500000 3.854209
31.900000 -105.500000 3.842329
32.200000 -105.500000 3.829755
32.500000 -105.500000 3.820136
32.800000 -105.500000 3.812182
33.100000 -105.500000 3.806986
33.400000 -105.500000 3.807328
33.700000 -105.500000 3.811060
34.000000 -105.500000 3.816389
34.300000 -105.500000 3.815391
34.600000 -105.500000 3.811962
34.900000 -105.500000 3.804712
35.200000 -105.500000 3.792156
35.500000 -105.500000 3.774782
35.800000 -105.500000 3.754335
36.100000 -105.500000 3.738037
36.400000 -105.500000 3.729589
36.700000 -105.500000 3.730270
37.000000 -105.500000 3.738066
37.300000 -105.500000 3.751101
37.600000 -105.500000 3.768083
37.900000 -105.500000 3.787391
38.200000 -105.500000 3.806673
38.500000 -105.500000 3.824542
38.800000 -105.500000 3.839600
39.100000 -105.500000 3.851711
39.400000 -105.500000 3.859253
39.700000 -105.500000 3.863561
40.000000 -105.500000 3.865807
40.300000 -105.500000 3.872896
40.600000 -105.500000 3.886851
40.900000 -105.500000 3.906828
41.200000 -105.500000 3.928909
41.500000 -105.500000 3.948601
41.800000 -105.500000 3.962815
42.100000 -105.500000 3.970783
42.400000 -105.500000 3.976955
42.700000 -105.500000 3.983815
43.000000 -105.500000 3.990825
43.300000 -105.500000 3.998353
43.600000 -105.500000 4.001811
43.900000 -105.500000 4.001813
44.200000 -105.500000 4.003629
44.500000 -105.500000 4.011990
44.800000 -105.500000 4.031738
45.100000 -105.500000 4.052917
45.400000 -105.500000 4.065970
45.700000 -105.500000 4.062738
46.000000 -105.500000 4.046636
46.300000 -105.500000 4.027661
46.600000 -105.500000 4.008857
46.900000 -105.500000 3.997405
47.200000 -105.500000 3.991012
47.500000 -105.500000 3.988967
47.800000 -105.500000 3.989336
48.100000 -105.500000 3.993928
48.400000 -105.500000 4.004637
48.700000 -105.500000 4.012065
30.700000 -105.200000 3.865409
31.000000 -105.200000 3.866653
31.300000 -105.200000 3.867048
31.600000 -105.200000 3.865704
31.900000 -105.200000 3.861307
32.200000 -105.200000 3.855106
32.500000 -105.200000 3.849483
32.800000 -105.200000 3.840832
33.100000 -105.200000 3.836211
33.400000 -105.200000 3.834932
33.700000 -105.200000 3.841380
34.000000 -105.200000 3.845412
34.300000 -105.200000 3.843505
34.600000 -105.200000 3.836894
34.900000 -105.200000 3.827557
35.200000 -105.200000 3.815008
35.500000 -105.200000 3.798071
35.800000 -105.200000 3.777591
36.100000 -105.200000 3.759104
36.400000 -105.200000 3.748066
36.700000 -105.200000 3.746886
37.000000 -105.200000 3.754526
37.300000 -105.200000 3.767597
37.600000 -105.200000 3.784210
37.900000 -105.200000 3.802803
38.200000 -105.200000 3.821913
38.500000 -105.200000 3.839309
38.800000 -105.200000 3.854143
39.100000 -105.200000 3.866820
39.400000 -105.200000 3.877153
39.700000 -105.200000 3.884338
40.000000 -105.200000 3.888688
40.300000 -105.200000 3.895144
40.600000 -105.200000 3.907019
40.900000 -105.200000 3.922901
41.200000 -105.200000 3.939933
41.500000 -105.200000 3.954164
41.800000 -105.200000 3.963284
42.100000 -105.200000 3.968145
42.400000 -105.200000 3.969639
42.700000 -105.200000 3.973054
43.000000 -105.200000 3.977244
43.300000 -105.200000 3.984280
43.600000 -105.200000 3.989955
43.900000 -105.200000 3.995771
44.200000 -105.200000 4.002184
44.500000 -105.200000 4.014743
44.800000 -105.200000 4.033637
45.100000 -105.200000 4.055346
45.400000 -105.200000 4.068375
45.700000 -105.200000 4.066273
46.000000 -105.200000 4.050755
46.300000 -105.200000 4.029086
46.600000 -105.200000 4.010315
46.900000 -105.200000 3.997480
47.200000 -105.200000 3.991262
47.500000 -105.200000 3.987862
47.800000 -105.200000 3.985131
48.100000 -105.200000 3.988964
48.400000 -105.200000 3.998610
48.700000 -105.200000 4.007466
30.400000 -104.900000 3.863275
30.700000 -104.900000 3.863933
31.000000 -104.900000 3.865646
31.300000 -104.900000 3.870309
31.600000 -104.900000 3.876397
31.900000 -104.900000 3.880556
32.200000 -104.900000 3.883755
32.500000 -104.900000 3.882176
32.800000 -104.900000 3.876070
33.100000 -104.900000 3.871124
33.400000 -104.900000 3.870255
33.700000 -104.900000 3.876593
34.000000 -104.900000 3.877649
34.300000 -104.900000 3.872302
34.600000 -104.900000 3.861684
34.900000 -104.900000 3.849371
35.200000 -104.900000 3.836314
35.500000 -104.900000 3.819281
35.800000 -104.900000 3.800018
36.100000 -104.900000 3.781553
36.400000 -104.900000 3.770240
36.700000 -104.900000 3.769000
37.000000 -104.900000 3.777011
37.300000 -104.900000 3.790334
37.600000 -104.900000 3.806363
37.900000 -104.900000 3.824146
38.200000 -104.900000 3.842484
38.500000 -104.900000 3.858663
38.800000 -104.900000 3.872793
39.100000 -104.900000 3.884908
39.400000 -104.900000 3.895704
39.700000 -104.900000 3.903861
40.000000 -104.900000 3.910005
40.300000 -104.900000 3.915621
40.600000 -104.900000 3.924667
40.900000 -104.900000 3.935393
41.200000 -104.900000 3.946988
41.500000 -104.900000 3.955428
41.800000 -104.900000 3.960354
42.100000 -104.900000 3.962449
42.400000 -104.900000 3.962020
42.700000 -104.900000 3.962372
43.000000 -104.900000 3.963992
43.300000 -104.900000 3.970327
43.600000 -104.900000 3.978241
43.900000 -104.900000 3.988535
44.200000 -104.900000 4.000736
44.500000 -104.900000 4.015726
44.800000 -104.900000 4.033276
45.100000 -104.900000 4.053572
45.400000 -104.900000 4.066299
45.700000 -104.900000 4.065232
46.000000 -104.900000 4.050489
46.300000 -104.900000 4.029300
46.600000 -104.900000 4.010191
46.900000 -104.900000 3.998389
47.200000 -104.900000 3.992482
47.500000 -104.900000 3.988239
47.800000 -104.900000 3.985439
48.100000 -104.900000 3.987225
48.400000 -104.900000 3.996171
48.700000 -104.900000 4.004881
30.400000 -104.600000 3.862952
30.700000 -104.600000 3.863343
31.000000 -104.600000 3.865735
31.300000 -104.600000 3.873665
31.600000 -104.600000 3.885927
31.900000 -104.600000 3.898030
32.200000 -104.600000 3.911441
32.500000 -104.600000 3.916731
32.800000 -104.600000 3.915451
33.100000 -104.600000 3.909988
33.400000 -104.600000 3.906528
33.700000 -104.600000 3.907794
34.000000 -104.600000 3.903300
34.300000 -104.600000 3.894569
34.600000 -104.600000 3.882415
34.900000 -104.600000 3.869078
35.200000 -104.600000 3.856146
35.500000 -104.600000 3.839859
35.800000 -104.600000 3.823007
36.100000 -104.600000 3.805776
36.400000 -104.600000 3.795552
36.700000 -104.600000 3.794593
37.000000 -104.600000 3.802815
37.300000 -104.600000 3.815580
37.600000 -104.600000 3.830774
37.900000 -104.600000 3.848440
38.200000 -104.600000 3.867200
38.500000 -104.600000 3.884081
38.800000 -104.600000 3.897874
39.100000 -104.600000 3.908226
39.400000 -104.600000 3.916932
39.700000 -104.600000 3.923439
40.000000 -104.600000 3.928653
40.300000 -104.600000 3.932565
40.600000 -104.600000 3.937929
40.900000 -104.600000 3.943795
41.200000 -104.600000 3.949901
41.500000 -104.600000 3.952919
41.800000 -104.600000 3.954844
42.100000 -104.600000 3.955186
42.400000 -104.600000 3.954432
42.700000 -104.600000 3.952977
43.000000 -104.600000 3.952525
43.300000 -104.600000 3.958244
43.600000 -104.600000 3.968743
43.900000 -104.600000 3.984240
44.200000 -104.600000 4.000124
44.500000 -104.600000 4.015591
44.800000 -104.600000 4.031623
45.100000 -104.600000 4.048922
45.400000 -104.600000 4.060568
45.700000 -104.600000 4.060053
46.000000 -104.600000 4.047750
46.300000 -104.600000 4.028578
46.600000 -104.600000 4.010586
46.900000 -104.600000 4.000072
47.200000 -104.600000 3.995541
47.500000 -104.600000 3.992200
47.800000 -104.600000 3.989925
48.100000 -104.600000 3.991039
48.400000 -104.600000 3.998485
48.700000 -104.600000 4.004054
29.500000 -104.300000 3.861186
29.800000 -104.300000 3.862411
30.100000 -104.300000 3.864141
30.400000 -104.300000 3.864054
30.700000 -104.300000 3.864466
31.000000 -104.300000 3.867678
31.300000 -104.300000 3.877501
31.600000 -104.300000 3.894412
31.900000 -104.300000 3.914436
32.200000 -104.300000 3.935976
32.500000 -104.300000 3.945959
32.800000 -104.300000 3.946856
33.100000 -104.300000 3.940561
33.400000 -104.300000 3.936055
33.700000 -104.300000 3.932987
34.000000 -104.300000 3.924609
34.300000 -104.300000 3.913276
34.600000 -104.300000 3.900526
34.900000 -104.300000 3.887965
35.200000 -104.300000 3.875770
35.500000 -104.300000 3.861645
35.800000 -104.300000 3.847099
36.100000 -104.300000 3.832236
36.400000 -104.300000 3.822418
36.700000 -104.300000 3.821377
37.000000 -104.300000 3.828461
37.300000 -104.300000 3.839622
37.600000 -104.300000 3.853734
37.900000 -104.300000 3.870964
38.200000 -104.300000 3.890063
38.500000 -104.300000 3.907395
38.800000 -104.300000 3.922021
39.100000 -104.300000 3.932337
39.400000 -104.300000 3.939344
39.700000 -104.300000 3.942814
40.000000 -104.300000 3.945246
40.300000 -104.300000 3.946549
40.600000 -104.300000 3.948545
40.900000 -104.300000 3.949993
41.200000 -104.300000 3.951420
41.500000 -104.300000 3.950642
41.800000 -104.300000 3.950268
42.100000 -104.300000 3.950021
42.400000 -104.300000 3.948291
42.700000 -104.300000 3.944972
43.000000 -104.300000 3.943228
43.300000 -104.300000 3.947705
43.600000 -104.300000 3.960916
43.900000 -104.300000 3.979893
44.200000 -104.300000 3.997755
44.500000 -104.300000 4.013617
44.800000 -104.300000 4.027480
45.100000 -104.300000 4.041878
45.400000 -104.300000 4.052290
45.700000 -104.300000 4.053145
46.000000 -104.300000 4.044200
46.300000 -104.300000 4.028147
46.600000 -104.300000 4.012147
46.900000 -104.300000 4.002523
47.200000 -104.300000 3.998944
47.500000 -104.300000 3.997419
47.800000 -104.300000 3.996868
48.100000 -104.300000 3.998938
48.400000 -104.300000 4.003382
48.700000 -104.300000 4.006348
29.500000 -104.000000 3.859904
29.800000 -104.000000 3.861218
30.100000 -104.000000 3.863342
30.400000 -104.000000 3.865242
30.700000 -104.000000 3.867390
31.000000 -104.000000 3.872215
31.300000 -104.000000 3.883958
31.600000 -104.000000 3.903386
31.900000 -104.000000 3.928106
32.200000 -104.000000 3.951220
32.500000 -104.000000 3.964108
32.800000 -104.000000 3.966132
33.100000 -104.000000 3.962457
33.400000 -104.000000 3.957402
33.700000 -104.000000 3.951543
34.000000 -104.000000 3.940255
34.300000 -104.000000 3.928181
34.600000 -104.000000 3.915897
34.900000 -104.000000 3.905573
35.200000 -104.000000 3.895164
35.500000 -104.000000 3.883190
35.800000 -104.000000 3.870790
36.100000 -104.000000 3.857715
36.400000 -104.000000 3.849450
36.700000 -104.000000 3.848003
37.000000 -104.000000 3.853003
37.300000 -104.000000 3.861516
37.600000 -104.000000 3.873171
37.900000 -104.000000 3.888434
38.200000 -104.000000 3.905813
38.500000 -104.000000 3.922219
38.800000 -104.000000 3.937293
39.100000 -104.000000 3.948395
39.400000 -104.000000 3.955933
39.700000 -104.000000 3.958500
40.000000 -104.000000 3.959228
40.300000 -104.000000 3.958399
40.600000 -104.000000 3.958596
40.900000 -104.000000 3.957949
41.200000 -104.000000 3.956846
41.500000 -104.000000 3.953484
41.800000 -104.000000 3.950625
42.100000 -104.000000 3.949605
42.400000 -104.000000 3.946311
42.700000 -104.000000 3.940794
43.000000 -104.000000 3.937533
43.300000 -104.000000 3.939797
43.600000 -104.000000 3.952807
43.900000 -104.000000 3.972844
44.200000 -104.000000 3.992107
44.500000 -104.000000 4.007566
44.800000 -104.000000 4.020856
45.100000 -104.000000 4.033961
45.400000 -104.000000 4.043895
45.700000 -104.000000 4.045601
46.000000 -104.000000 4.039831
46.300000 -104.000000 4.026520
46.600000 -104.000000 4.014849
46.900000 -104.000000 4.005761
47.200000 -104.000000 4.004185
47.500000 -104.000000 4.003800
47.800000 -104.000000 4.005388
48.100000 -104.000000 4.007312
48.400000 -104.000000 4.010206
48.700000 -104.000000 4.010137
29.500000 -103.700000 3.857087
29.800000 -103.700000 3.860499
30.100000 -103.700000 3.863133
30.400000 -103.700000 3.867991
30.700000 -103.700000 3.873383
31.000000 -103.700000 3.880936
31.300000 -103.700000 3.893486
31.600000 -103.700000 3.912162
31.900000 -103.700000 3.935774
32.200000 -103.700000 3.956775
32.500000 -103.700000 3.969163
32.800000 -103.700000 3.972933
33.100000 -103.700000 3.973217
33.400000 -103.700000 3.970336
33.700000 -103.700000 3.963721
34.000000 -103.700000 3.950928
34.300000 -103.700000 3.939689
34.600000 -103.700000 3.929548
34.900000 -103.700000 3.922469
35.200000 -103.700000 3.913423
35.500000 -103.700000 3.903403
35.800000 -103.700000 3.892305
36.100000 -103.700000 3.882761
36.400000 -103.700000 3.876812
36.700000 -103.700000 3.875761
37.000000 -103.700000 3.878328
37.300000 -103.700000 3.883481
37.600000 -103.700000 3.891920
37.900000 -103.700000 3.902901
38.200000 -103.700000 3.915413
38.500000 -103.700000 3.927560
38.800000 -103.700000 3.941259
39.100000 -103.700000 3.953831
39.400000 -103.700000 3.964695
39.700000 -103.700000 3.970319
40.000000 -103.700000 3.972955
40.300000 -103.700000 3.972581
40.600000 -103.700000 3.972428
40.900000 -103.700000 3.970972
41.200000 -103.700000 3.968564
41.500000 -103.700000 3.964033
41.800000 -103.700000 3.958951
42.100000 -103.700000 3.956108
42.400000 -103.700000 3.949806
42.700000 -103.700000 3.942542
43.000000 -103.700000 3.936606
43.300000 -103.700000 3.935914
43.600000 -103.700000 3.947160
43.900000 -103.700000 3.966143
44.200000 -103.700000 3.985911
44.500000 -103.700000 4.001449
44.800000 -103.700000 4.015502
45.100000 -103.700000 4.028614
45.400000 -103.700000 4.037822
45.700000 -103.700000 4.040094
46.000000 -103.700000 4.035961
46.300000 -103.700000 4.027120
46.600000 -103.700000 4.017887
46.900000 -103.700000 4.012014
47.200000 -103.700000 4.010288
47.500000 -103.700000 4.011374
47.800000 -103.700000 4.013264
48.100000 -103.700000 4.015820
48.400000 -103.700000 4.014834
29.200000 -103.400000 3.856613
29.500000 -103.400000 3.857720
29.800000 -103.400000 3.861092
30.100000 -103.400000 3.864898
30.400000 -103.400000 3.872692
30.700000 -103.400000 3.882968
31.000000 -103.400000 3.895078
31.300000 -103.400000 3.909308
31.600000 -103.400000 3.925392
31.900000 -103.400000 3.942329
32.200000 -103.400000 3.957053
32.500000 -103.400000 3.966819
32.800000 -103.400000 3.972908
33.100000 -103.400000 3.976749
33.400000 -103.400000 3.976220
33.700000 -103.400000 3.969471
34.000000 -103.400000 3.957786
34.300000 -103.400000 3.948507
34.600000 -103.400000 3.941212
34.900000 -103.400000 3.935795
35.200000 -103.400000 3.928172
35.500000 -103.400000 3.920312
35.800000 -103.400000 3.912320
36.100000 -103.400000 3.907561
36.400000 -103.400000 3.904627
36.700000 -103.400000 3.904332
37.000000 -103.400000 3.904767
37.300000 -103.400000 3.907500
37.600000 -103.400000 3.912268
37.900000 -103.400000 3.917411
38.200000 -103.400000 3.923310
38.500000 -103.400000 3.929546
38.800000 -103.400000 3.940253
39.100000 -103.400000 3.953146
39.400000 -103.400000 3.967635
39.700000 -103.400000 3.978360
40.000000 -103.400000 3.984864
40.300000 -103.400000 3.986350
40.600000 -103.400000 3.986596
40.900000 -103.400000 3.985433
41.200000 -103.400000 3.983785
41.500000 -103.400000 3.979988
41.800000 -103.400000 3.974669
42.100000 -103.400000 3.968299
42.400000 -103.400000 3.959183
42.700000 -103.400000 3.950429
43.000000 -103.400000 3.940783
43.300000 -103.400000 3.938284
43.600000 -103.400000 3.945829
43.900000 -103.400000 3.963036
44.200000 -103.400000 3.982521
44.500000 -103.400000 3.999745
44.800000 -103.400000 4.015668
45.100000 -103.400000 4.028298
45.400000 -103.400000 4.036153
45.700000 -103.400000 4.037807
46.000000 -103.400000 4.034503
46.300000 -103.400000 4.029666
46.600000 -103.400000 4.022950
46.900000 -103.400000 4.019897
47.200000 -103.400000 4.019192
47.500000 -103.400000 4.019959
47.800000 -103.400000 4.021527
48.100000 -103.400000 4.022426
48.400000 -103.400000 4.024163
29.500000 -103.100000 3.859113
29.800000 -103.100000 3.864057
30.100000 -103.100000 3.870427
30.400000 -103.100000 3.882982
30.700000 -103.100000 3.898562
31.000000 -103.100000 3.916133
31.300000 -103.100000 3.932143
31.600000 -103.100000 3.945081
31.900000 -103.100000 3.954199
32.200000 -103.100000 3.961231
32.500000 -103.100000 3.966005
32.800000 -103.100000 3.972141
33.100000 -103.100000 3.976858
33.400000 -103.100000 3.976966
33.700000 -103.100000 3.969369
34.000000 -103.100000 3.959826
34.300000 -103.100000 3.954465
34.600000 -103.100000 3.950970
34.900000 -103.100000 3.946926
35.200000 -103.100000 3.940308
35.500000 -103.100000 3.935670
35.800000 -103.100000 3.932511
36.100000 -103.100000 3.933663
36.400000 -103.100000 3.933937
36.700000 -103.100000 3.934566
37.000000 -103.100000 3.933597
37.300000 -103.100000 3.933814
37.600000 -103.100000 3.934890
37.900000 -103.100000 3.933985
38.200000 -103.100000 3.932868
38.500000 -103.100000 3.933254
38.800000 -103.100000 3.940134
39.100000 -103.100000 3.953330
39.400000 -103.100000 3.970662
39.700000 -103.100000 3.986145
40.000000 -103.100000 3.995980
40.300000 -103.100000 3.999375
40.600000 -103.100000 3.999542
40.900000 -103.100000 3.998193
41.200000 -103.100000 3.997338
41.500000 -103.100000 3.995192
41.800000 -103.100000 3.991011
42.100000 -103.100000 3.981952
42.400000 -103.100000 3.971588
42.700000 -103.100000 3.961739
43.000000 -103.100000 3.950626
43.300000 -103.100000 3.945759
43.600000 -103.100000 3.952307
43.900000 -103.100000 3.967609
44.200000 -103.100000 3.987502
44.500000 -103.100000 4.006808
44.800000 -103.100000 4.022545
45.100000 -103.100000 4.033922
45.400000 -103.100000 4.039918
45.700000 -103.100000 4.040108
46.000000 -103.100000 4.036969
46.300000 -103.100000 4.033183
46.600000 -103.100000 4.029772
46.900000 -103.100000 4.029925
47.200000 -103.100000 4.030091
47.500000 -103.100000 4.031093
47.800000 -103.100000 4.030773
48.100000 -103.100000 4.032466
29.500000 -102.800000 3.865815
29.800000 -102.800000 3.870843
30.100000 -102.800000 3.881232
30.400000 -102.800000 3.898741
30.700000 -102.800000 3.920401
31.000000 -102.800000 3.942756
31.300000 -102.800000 3.960590
31.600000 -102.800000 3.970876
31.900000 -102.800000 3.973877
32.200000 -102.800000 3.973002
32.500000 -102.800000 3.971616
32.800000 -102.800000 3.974420
33.100000 -102.800000 3.978266
33.400000 -102.800000 3.977863
33.700000 -102.800000 3.970940
34.000000 -102.800000 3.963593
34.300000 -102.800000 3.960520
34.600000 -102.800000 3.958302
34.900000 -102.800000 3.954350
35.200000 -102.800000 3.949800
35.500000 -102.800000 3.948152
35.800000 -102.800000 3.950256
36.100000 -102.800000 3.955876
36.400000 -102.800000 3.960251
36.700000 -102.800000 3.962207
37.000000 -102.800000 3.960725
37.300000 -102.800000 3.958292
37.600000 -102.800000 3.955675
37.900000 -102.800000 3.950421
38.200000 -102.800000 3.944676
38.500000 -102.800000 3.941009
38.800000 -102.800000 3.943656
39.100000 -102.800000 3.955881
39.400000 -102.800000 3.973677
39.700000 -102.800000 3.991966
40.000000 -102.800000 4.003284
40.300000 -102.800000 4.007306
40.600000 -102.800000 4.007693
40.900000 -102.800000 4.007121
41.200000 -102.800000 4.007444
41.500000 -102.800000 4.006709
41.800000 -102.800000 4.002717
42.100000 -102.800000 3.992407
42.400000 -102.800000 3.982174
42.700000 -102.800000 3.970723
43.000000 -102.800000 3.960592
43.300000 -102.800000 3.955958
43.600000 -102.800000 3.962350
43.900000 -102.800000 3.979272
44.200000 -102.800000 3.999588
44.500000 -102.800000 4.018566
44.800000 -102.800000 4.032693
45.100000 -102.800000 4.042147
45.400000 -102.800000 4.046522
45.700000 -102.800000 4.045599
46.000000 -102.800000 4.041810
46.300000 -102.800000 4.037807
46.600000 -102.800000 4.036504
46.900000 -102.800000 4.038160
47.200000 -102.800000 4.040692
47.500000 -102.800000 4.042509
47.800000 -102.800000 4.041986
48.100000 -102.800000 4.042946
48.400000 -102.800000 4.045817
29.800000 -102.500000 3.882545
30.100000 -102.500000 3.898888
30.400000 -102.500000 3.920811
30.700000 -102.500000 3.945167
31.000000 -102.500000 3.968888
31.300000 -102.500000 3.986430
31.600000 -102.500000 3.993767
31.900000 -102.500000 3.993227
32.200000 -102.500000 3.988347
32.500000 -102.500000 3.983882
32.800000 -102.500000 3.983597
33.100000 -102.500000 3.985343
33.400000 -102.500000 3.983439
33.700000 -102.500000 3.976476
34.000000 -102.500000 3.970005
34.300000 -102.500000 3.967287
34.600000 -102.500000 3.965134
34.900000 -102.500000 3.961101
35.200000 -102.500000 3.957554
35.500000 -102.500000 3.957315
35.800000 -102.500000 3.962689
36.100000 -102.500000 3.971782
36.400000 -102.500000 3.981274
36.700000 -102.500000 3.985599
37.000000 -102.500000 3.984279
37.300000 -102.500000 3.978809
37.600000 -102.500000 3.972782
37.900000 -102.500000 3.965763
38.200000 -102.500000 3.958623
38.500000 -102.500000 3.953831
38.800000 -102.500000 3.953034
39.100000 -102.500000 3.961953
39.400000 -102.500000 3.977237
39.700000 -102.500000 3.995334
40.000000 -102.500000 4.007273
40.300000 -102.500000 4.011560
40.600000 -102.500000 4.012950
40.900000 -102.500000 4.012817
41.200000 -102.500000 4.013103
41.500000 -102.500000 4.012152
41.800000 -102.500000 4.007197
42.100000 -102.500000 3.998139
42.400000 -102.500000 3.987241
42.700000 -102.500000 3.976481
43.000000 -102.500000 3.968720
43.300000 -102.500000 3.965638
43.600000 -102.500000 3.974749
43.900000 -102.500000 3.993399
44.200000 -102.500000 4.013459
44.500000 -102.500000 4.030240
44.800000 -102.500000 4.041756
45.100000 -102.500000 4.048994
45.400000 -102.500000 4.051797
45.700000 -102.500000 4.050535
46.000000 -102.500000 4.046472
46.300000 -102.500000 4.041672
46.600000 -102.500000 4.040747
46.900000 -102.500000 4.043454
47.200000 -102.500000 4.048612
47.500000 -102.500000 4.052385
47.800000 -102.500000 4.052146
48.100000 -102.500000 4.051955
48.400000 -102.500000 4.055597
48.700000 -102.500000 4.056408
30.100000 -102.200000 3.922176
30.400000 -102.200000 3.941775
30.700000 -102.200000 3.966870
31.000000 -102.200000 3.989396
31.300000 -102.200000 4.006258
31.600000 -102.200000 4.011599
31.900000 -102.200000 4.009876
32.200000 -102.200000 4.003474
32.500000 -102.200000 3.998997
32.800000 -102.200000 3.997635
33.100000 -102.200000 3.997543
33.400000 -102.200000 3.993065
33.700000 -102.200000 3.985282
34.000000 -102.200000 3.978125
34.300000 -102.200000 3.973124
34.600000 -102.200000 3.968293
34.900000 -102.200000 3.962177
35.200000 -102.200000 3.958276
35.500000 -102.200000 3.958770
35.800000 -102.200000 3.966594
36.100000 -102.200000 3.979548
36.400000 -102.200000 3.993572
36.700000 -102.200000 4.001084
37.000000 -102.200000 4.000504
37.300000 -102.200000 3.993349
37.600000 -102.200000 3.985963
37.900000 -102.200000 3.980061
38.200000 -102.200000 3.975089
38.500000 -102.200000 3.970683
38.800000 -102.200000 3.966855
39.100000 -102.200000 3.971519
39.400000 -102.200000 3.982248
39.700000 -102.200000 3.997863
40.000000 -102.200000 4.008538
40.300000 -102.200000 4.013906
40.600000 -102.200000 4.016252
40.900000 -102.200000 4.017397
41.200000 -102.200000 4.017135
41.500000 -102.200000 4.015731
41.800000 -102.200000 4.009225
42.100000 -102.200000 4.000014
42.400000 -102.200000 3.989062
42.700000 -102.200000 3.980386
43.000000 -102.200000 3.973742
43.300000 -102.200000 3.974915
43.600000 -102.200000 3.986818
43.900000 -102.200000 4.006968
44.200000 -102.200000 4.026733
44.500000 -102.200000 4.040326
44.800000 -102.200000 4.048722
45.100000 -102.200000 4.053205
45.400000 -102.200000 4.054896
45.700000 -102.200000 4.053861
46.000000 -102.200000 4.049256
46.300000 -102.200000 4.044261
46.600000 -102.200000 4.042374
46.900000 -102.200000 4.045580
47.200000 -102.200000 4.052145
47.500000 -102.200000 4.056579
47.800000 -102.200000 4.057176
48.100000 -102.200000 4.056486
48.400000 -102.200000 4.055794
48.700000 -102.200000 4.057287
30.100000 -101.900000 3.947043
30.400000 -101.900000 3.957247
30.700000 -101.900000 3.979420
31.000000 -101.900000 4.000342
31.300000 -101.900000 4.017231
31.600000 -101.900000 4.023008
31.900000 -101.900000 4.022088
32.200000 -101.900000 4.016953
32.500000 -101.900000 4.013942
32.800000 -101.900000 4.012566
33.100000 -101.900000 4.010527
33.400000 -101.900000 4.003800
33.700000 -101.900000 3.993511
34.000000 -101.900000 3.983930
34.300000 -101.900000 3.975764
34.600000 -101.900000 3.966607
34.900000 -101.900000 3.956878
35.200000 -101.900000 3.950420
35.500000 -101.900000 3.952006
35.800000 -101.900000 3.962959
36.100000 -101.900000 3.980289
36.400000 -101.900000 3.997797
36.700000 -101.900000 4.008127
37.000000 -101.900000 4.008956
37.300000 -101.900000 4.002780
37.600000 -101.900000 3.996472
37.900000 -101.900000 3.992957
38.200000 -101.900000 3.991236
38.500000 -101.900000 3.988323
38.800000 -101.900000 3.984527
39.100000 -101.900000 3.985156
39.400000 -101.900000 3.990866
39.700000 -101.900000 4.001049
40.000000 -101.900000 4.010358
40.300000 -101.900000 4.016975
40.600000 -101.900000 4.021118
40.900000 -101.900000 4.022810
41.200000 -101.900000 4.021821
41.500000 -101.900000 4.019281
41.800000 -101.900000 4.011350
42.100000 -101.900000 4.001560
42.400000 -101.900000 3.990094
42.700000 -101.900000 3.982911
43.000000 -101.900000 3.979383
43.300000 -101.900000 3.983388
43.600000 -101.900000 3.998748
43.900000 -101.900000 4.020390
44.200000 -101.900000 4.039958
44.500000 -101.900000 4.050858
44.800000 -101.900000 4.055579
45.100000 -101.900000 4.057991
45.400000 -101.900000 4.057924
45.700000 -101.900000 4.056641
46.000000 -101.900000 4.051620
46.300000 -101.900000 4.046556
46.600000 -101.900000 4.043193
46.900000 -101.900000 4.045254
47.200000 -101.900000 4.050687
47.500000 -101.900000 4.054178
47.800000 -101.900000 4.056873
48.100000 -101.900000 4.052495
48.400000 -101.900000 4.052399
48.700000 -101.900000 4.052787
30.100000 -101.600000 3.953242
30.400000 -101.600000 3.963772
30.700000 -101.600000 3.983234
31.000000 -101.600000 4.003323
31.300000 -101.600000 4.020797
31.600000 -101.600000 4.029600
31.900000 -101.600000 4.031074
32.200000 -101.600000 4.028212
32.500000 -101.600000 4.026230
32.800000 -101.600000 4.025549
33.100000 -101.600000 4.022201
33.400000 -101.600000 4.013557
33.700000 -101.600000 4.000805
34.000000 -101.600000 3.987647
34.300000 -101.600000 3.975344
34.600000 -101.600000 3.960251
34.900000 -101.600000 3.945489
35.200000 -101.600000 3.936382
35.500000 -101.600000 3.939340
35.800000 -101.600000 3.953817
36.100000 -101.600000 3.974838
36.400000 -101.600000 3.995324
36.700000 -101.600000 4.008603
37.000000 -101.600000 4.012297
37.300000 -101.600000 4.008621
37.600000 -101.600000 4.004931
37.900000 -101.600000 4.003842
38.200000 -101.600000 4.005021
38.500000 -101.600000 4.004014
38.800000 -101.600000 4.001308
39.100000 -101.600000 3.999973
39.400000 -101.600000 4.001761
39.700000 -101.600000 4.006916
40.000000 -101.600000 4.014010
40.300000 -101.600000 4.021369
40.600000 -101.600000 4.027039
40.900000 -101.600000 4.029672
41.200000 -101.600000 4.028693
41.500000 -101.600000 4.025078
41.800000 -101.600000 4.015947
42.100000 -101.600000 4.004711
42.400000 -101.600000 3.993389
42.700000 -101.600000 3.987453
43.000000 -101.600000 3.987313
43.300000 -101.600000 3.994168
43.600000 -101.600000 4.011548
43.900000 -101.600000 4.034525
44.200000 -101.600000 4.053542
44.500000 -101.600000 4.062850
44.800000 -101.600000 4.065752
45.100000 -101.600000 4.065429
45.400000 -101.600000 4.063942
45.700000 -101.600000 4.060340
46.000000 -101.600000 4.055977
46.300000 -101.600000 4.050722
46.600000 -101.600000 4.046334
46.900000 -101.600000 4.045261
47.200000 -101.600000 4.047354
47.500000 -101.600000 4.049931
47.800000 -101.600000 4.048708
48.100000 -101.600000 4.045075
48.400000 -101.600000 4.043957
48.700000 -101.600000 4.046298
29.800000 -101.300000 3.953679
30.100000 -101.300000 3.956799
30.400000 -101.300000 3.966642
30.700000 -101.300000 3.982989
31.000000 -101.300000 4.002400
31.300000 -101.300000 4.020301
31.600000 -101.300000 4.031660
31.900000 -101.300000 4.035501
32.200000 -101.300000 4.034802
32.500000 -101.300000 4.034020
32.800000 -101.300000 4.033939
33.100000 -101.300000 4.031231
33.400000 -101.300000 4.022602
33.700000 -101.300000 4.008181
