41.200000 -98.600000 3.837520
41.500000 -98.600000 3.823437
41.800000 -98.600000 3.820531
42.100000 -98.600000 3.820966
42.400000 -98.600000 3.821720
42.700000 -98.600000 3.831931
43.000000 -98.600000 3.841843
43.300000 -98.600000 3.852470
43.600000 -98.600000 3.880938
43.900000 -98.600000 3.908443
44.200000 -98.600000 3.951058
44.500000 -98.600000 3.970908
44.800000 -98.600000 3.964525
45.100000 -98.600000 3.970788
45.400000 -98.600000 3.975668
45.700000 -98.600000 3.979955
46.000000 -98.600000 3.980854
46.300000 -98.600000 3.972000
46.600000 -98.600000 3.975884
46.900000 -98.600000 3.973723
47.200000 -98.600000 3.970868
47.500000 -98.600000 3.972373
47.800000 -98.600000 3.962705
48.100000 -98.600000 3.937679
48.400000 -98.600000 3.921055
48.700000 -98.600000 3.905953
26.500000 -98.300000 3.619955
26.800000 -98.300000 3.657671
27.100000 -98.300000 3.682596
27.400000 -98.300000 3.720060
27.700000 -98.300000 3.754938
28.000000 -98.300000 3.800547
28.300000 -98.300000 3.832944
28.600000 -98.300000 3.856938
28.900000 -98.300000 3.848257
29.200000 -98.300000 3.844634
29.500000 -98.300000 3.846312
29.800000 -98.300000 3.862683
30.100000 -98.300000 3.878973
30.400000 -98.300000 3.890028
30.700000 -98.300000 3.895025
31.000000 -98.300000 3.893624
31.300000 -98.300000 3.886956
31.600000 -98.300000 3.880083
31.900000 -98.300000 3.871918
32.200000 -98.300000 3.854780
32.500000 -98.300000 3.840502
32.800000 -98.300000 3.827095
33.100000 -98.300000 3.824895
33.400000 -98.300000 3.810313
33.700000 -98.300000 3.793966
34.000000 -98.300000 3.776440
34.300000 -98.300000 3.766379
34.600000 -98.300000 3.767327
34.900000 -98.300000 3.779445
35.200000 -98.300000 3.807369
35.500000 -98.300000 3.847839
35.800000 -98.300000 3.882737
36.100000 -98.300000 3.898377
36.400000 -98.300000 3.905839
36.700000 -98.300000 3.902052
37.000000 -98.300000 3.883142
37.300000 -98.300000 3.874148
37.600000 -98.300000 3.867647
37.900000 -98.300000 3.866964
38.200000 -98.300000 3.870457
38.500000 -98.300000 3.886550
38.800000 -98.300000 3.898507
39.100000 -98.300000 3.909506
39.400000 -98.300000 3.915874
39.700000 -98.300000 3.923507
40.000000 -98.300000 3.921328
40.300000 -98.300000 3.909937
40.600000 -98.300000 3.889971
40.900000 -98.300000 3.868983
41.200000 -98.300000 3.847748
41.500000 -98.300000 3.836517
41.800000 -98.300000 3.833959
42.100000 -98.300000 3.829453
42.400000 -98.300000 3.829419
42.700000 -98.300000 3.841874
43.000000 -98.300000 3.856967
43.300000 -98.300000 3.860215
43.600000 -98.300000 3.882872
43.900000 -98.300000 3.916609
44.200000 -98.300000 3.955879
44.500000 -98.300000 3.979005
44.800000 -98.300000 3.973064
45.100000 -98.300000 3.974962
45.400000 -98.300000 3.980068
45.700000 -98.300000 3.981440
46.000000 -98.300000 3.982820
46.300000 -98.300000 3.974528
46.600000 -98.300000 3.975113
46.900000 -98.300000 3.972473
47.200000 -98.300000 3.971690
47.500000 -98.300000 3.972320
47.800000 -98.300000 3.962816
48.100000 -98.300000 3.938455
48.400000 -98.300000 3.919457
48.700000 -98.300000 3.898625
27.100000 -98.000000 3.667872
27.400000 -98.000000 3.706302
27.700000 -98.000000 3.742377
28.000000 -98.000000 3.788401
28.300000 -98.000000 3.822865
28.600000 -98.000000 3.851116
28.900000 -98.000000 3.845084
29.200000 -98.000000 3.846678
29.500000 -98.000000 3.850878
29.800000 -98.000000 3.862587
30.100000 -98.000000 3.873462
30.400000 -98.000000 3.879157
30.700000 -98.000000 3.881795
31.000000 -98.000000 3.881112
31.300000 -98.000000 3.877871
31.600000 -98.000000 3.872829
31.900000 -98.000000 3.868317
32.200000 -98.000000 3.854422
32.500000 -98.000000 3.841021
32.800000 -98.000000 3.827475
33.100000 -98.000000 3.824394
33.400000 -98.000000 3.813256
33.700000 -98.000000 3.798869
34.000000 -98.000000 3.782758
34.300000 -98.000000 3.777732
34.600000 -98.000000 3.783322
34.900000 -98.000000 3.803771
35.200000 -98.000000 3.835397
35.500000 -98.000000 3.867360
35.800000 -98.000000 3.895869
36.100000 -98.000000 3.907334
36.400000 -98.000000 3.914679
36.700000 -98.000000 3.909655
37.000000 -98.000000 3.893070
37.300000 -98.000000 3.880066
37.600000 -98.000000 3.874262
37.900000 -98.000000 3.867453
38.200000 -98.000000 3.863219
38.500000 -98.000000 3.869137
38.800000 -98.000000 3.877077
39.100000 -98.000000 3.886403
39.400000 -98.000000 3.895877
39.700000 -98.000000 3.906885
40.000000 -98.000000 3.904922
40.300000 -98.000000 3.900569
40.600000 -98.000000 3.887722
40.900000 -98.000000 3.873272
41.200000 -98.000000 3.861010
41.500000 -98.000000 3.852510
41.800000 -98.000000 3.848567
42.100000 -98.000000 3.840077
42.400000 -98.000000 3.838931
42.700000 -98.000000 3.853215
43.000000 -98.000000 3.865908
43.300000 -98.000000 3.867858
43.600000 -98.000000 3.888115
43.900000 -98.000000 3.922571
44.200000 -98.000000 3.955200
44.500000 -98.000000 3.976734
44.800000 -98.000000 3.976729
45.100000 -98.000000 3.976857
45.400000 -98.000000 3.979816
45.700000 -98.000000 3.980725
46.000000 -98.000000 3.984246
46.300000 -98.000000 3.980891
46.600000 -98.000000 3.981632
46.900000 -98.000000 3.977272
47.200000 -98.000000 3.975637
47.500000 -98.000000 3.970131
47.800000 -98.000000 3.959118
48.100000 -98.000000 3.938967
48.400000 -98.000000 3.919804
48.700000 -98.000000 3.888698
27.100000 -97.700000 3.661773
27.400000 -97.700000 3.690829
27.700000 -97.700000 3.738082
28.000000 -97.700000 3.769689
28.300000 -97.700000 3.803583
28.600000 -97.700000 3.834612
28.900000 -97.700000 3.834067
29.200000 -97.700000 3.841999
29.500000 -97.700000 3.849736
29.800000 -97.700000 3.861968
30.100000 -97.700000 3.870334
30.400000 -97.700000 3.872813
30.700000 -97.700000 3.874182
31.000000 -97.700000 3.874608
31.300000 -97.700000 3.874279
31.600000 -97.700000 3.871892
31.900000 -97.700000 3.867639
32.200000 -97.700000 3.856416
32.500000 -97.700000 3.843447
32.800000 -97.700000 3.828021
33.100000 -97.700000 3.825010
33.400000 -97.700000 3.816157
33.700000 -97.700000 3.805567
34.000000 -97.700000 3.797321
34.300000 -97.700000 3.798252
34.600000 -97.700000 3.807362
34.900000 -97.700000 3.828773
35.200000 -97.700000 3.860538
35.500000 -97.700000 3.883809
35.800000 -97.700000 3.899809
36.100000 -97.700000 3.907543
36.400000 -97.700000 3.914021
36.700000 -97.700000 3.911680
37.000000 -97.700000 3.896151
37.300000 -97.700000 3.887309
37.600000 -97.700000 3.881278
37.900000 -97.700000 3.871730
38.200000 -97.700000 3.860793
38.500000 -97.700000 3.859198
38.800000 -97.700000 3.859860
39.100000 -97.700000 3.864879
39.400000 -97.700000 3.875454
39.700000 -97.700000 3.884830
40.000000 -97.700000 3.879830
40.300000 -97.700000 3.877021
40.600000 -97.700000 3.872479
40.900000 -97.700000 3.869388
41.200000 -97.700000 3.870252
41.500000 -97.700000 3.868691
41.800000 -97.700000 3.866744
42.100000 -97.700000 3.857686
42.400000 -97.700000 3.851095
42.700000 -97.700000 3.860551
43.000000 -97.700000 3.870581
43.300000 -97.700000 3.872611
43.600000 -97.700000 3.890443
43.900000 -97.700000 3.928427
44.200000 -97.700000 3.950057
44.500000 -97.700000 3.969759
44.800000 -97.700000 3.975301
45.100000 -97.700000 3.971246
45.400000 -97.700000 3.975939
45.700000 -97.700000 3.976787
46.000000 -97.700000 3.983898
46.300000 -97.700000 3.985399
46.600000 -97.700000 3.986465
46.900000 -97.700000 3.984233
47.200000 -97.700000 3.978222
47.500000 -97.700000 3.969796
47.800000 -97.700000 3.957188
48.100000 -97.700000 3.943202
48.400000 -97.700000 3.923709
48.700000 -97.700000 3.897657
27.400000 -97.400000 3.680276
28.000000 -97.400000 3.759443
28.300000 -97.400000 3.792808
28.600000 -97.400000 3.807155
28.900000 -97.400000 3.816108
29.200000 -97.400000 3.829396
29.500000 -97.400000 3.844122
29.800000 -97.400000 3.860494
30.100000 -97.400000 3.866899
30.400000 -97.400000 3.872190
30.700000 -97.400000 3.873466
31.000000 -97.400000 3.873655
31.300000 -97.400000 3.878366
31.600000 -97.400000 3.874083
31.900000 -97.400000 3.870019
32.200000 -97.400000 3.860429
32.500000 -97.400000 3.846303
32.800000 -97.400000 3.833308
33.100000 -97.400000 3.831898
33.400000 -97.400000 3.823298
33.700000 -97.400000 3.815815
34.000000 -97.400000 3.813033
34.300000 -97.400000 3.820945
34.600000 -97.400000 3.831158
34.900000 -97.400000 3.854087
35.200000 -97.400000 3.881483
35.500000 -97.400000 3.895589
35.800000 -97.400000 3.901786
36.100000 -97.400000 3.903608
36.400000 -97.400000 3.908914
36.700000 -97.400000 3.906073
37.000000 -97.400000 3.896110
37.300000 -97.400000 3.888782
37.600000 -97.400000 3.887128
37.900000 -97.400000 3.878654
38.200000 -97.400000 3.866571
38.500000 -97.400000 3.859764
38.800000 -97.400000 3.856020
39.100000 -97.400000 3.856507
39.400000 -97.400000 3.864076
39.700000 -97.400000 3.867740
40.000000 -97.400000 3.858485
40.300000 -97.400000 3.855366
40.600000 -97.400000 3.854622
40.900000 -97.400000 3.862564
41.200000 -97.400000 3.875923
41.500000 -97.400000 3.883134
41.800000 -97.400000 3.884889
42.100000 -97.400000 3.876609
42.400000 -97.400000 3.866094
42.700000 -97.400000 3.867013
43.000000 -97.400000 3.868989
43.300000 -97.400000 3.872368
43.600000 -97.400000 3.894319
43.900000 -97.400000 3.929061
44.200000 -97.400000 3.943093
44.500000 -97.400000 3.962034
44.800000 -97.400000 3.966887
45.100000 -97.400000 3.961698
45.400000 -97.400000 3.966837
45.700000 -97.400000 3.971022
46.000000 -97.400000 3.981467
46.300000 -97.400000 3.984390
46.600000 -97.400000 3.985603
46.900000 -97.400000 3.984491
47.200000 -97.400000 3.979653
47.500000 -97.400000 3.970102
47.800000 -97.400000 3.958221
48.100000 -97.400000 3.945158
48.400000 -97.400000 3.928502
48.700000 -97.400000 3.907505
28.600000 -97.100000 3.769061
28.900000 -97.100000 3.787128
29.200000 -97.100000 3.809514
29.500000 -97.100000 3.829836
29.800000 -97.100000 3.852494
30.100000 -97.100000 3.861668
30.400000 -97.100000 3.870437
30.700000 -97.100000 3.872924
31.000000 -97.100000 3.872483
31.300000 -97.100000 3.876743
31.600000 -97.100000 3.876219
31.900000 -97.100000 3.875462
32.200000 -97.100000 3.865377
32.500000 -97.100000 3.851113
32.800000 -97.100000 3.841096
33.100000 -97.100000 3.842319
33.400000 -97.100000 3.833261
33.700000 -97.100000 3.826805
34.000000 -97.100000 3.826392
34.300000 -97.100000 3.840095
34.600000 -97.100000 3.852862
34.900000 -97.100000 3.873099
35.200000 -97.100000 3.896415
35.500000 -97.100000 3.904982
35.800000 -97.100000 3.904212
36.100000 -97.100000 3.900174
36.400000 -97.100000 3.900217
36.700000 -97.100000 3.898840
37.000000 -97.100000 3.893557
37.300000 -97.100000 3.892825
37.600000 -97.100000 3.893524
37.900000 -97.100000 3.888973
38.200000 -97.100000 3.879606
38.500000 -97.100000 3.873340
38.800000 -97.100000 3.868176
39.100000 -97.100000 3.866885
39.400000 -97.100000 3.868705
39.700000 -97.100000 3.865716
40.000000 -97.100000 3.853806
40.300000 -97.100000 3.844460
40.600000 -97.100000 3.846016
40.900000 -97.100000 3.857701
41.200000 -97.100000 3.874909
41.500000 -97.100000 3.890774
41.800000 -97.100000 3.898763
42.100000 -97.100000 3.892853
42.400000 -97.100000 3.880723
42.700000 -97.100000 3.868318
43.000000 -97.100000 3.869019
43.300000 -97.100000 3.871037
43.600000 -97.100000 3.894959
43.900000 -97.100000 3.924473
44.200000 -97.100000 3.936982
44.500000 -97.100000 3.952579
44.800000 -97.100000 3.955869
45.100000 -97.100000 3.950894
45.400000 -97.100000 3.956067
45.700000 -97.100000 3.964903
46.000000 -97.100000 3.977249
46.300000 -97.100000 3.981773
46.600000 -97.100000 3.983793
46.900000 -97.100000 3.984457
47.200000 -97.100000 3.982802
47.500000 -97.100000 3.972364
47.800000 -97.100000 3.961331
48.100000 -97.100000 3.946584
48.400000 -97.100000 3.931984
48.700000 -97.100000 3.917520
28.600000 -96.800000 3.728595
28.900000 -96.800000 3.757100
29.200000 -96.800000 3.786662
29.500000 -96.800000 3.814995
29.800000 -96.800000 3.838085
30.100000 -96.800000 3.849271
30.400000 -96.800000 3.860450
30.700000 -96.800000 3.867160
31.000000 -96.800000 3.867522
31.300000 -96.800000 3.872732
31.600000 -96.800000 3.873656
31.900000 -96.800000 3.877810
32.200000 -96.800000 3.869022
32.500000 -96.800000 3.853724
32.800000 -96.800000 3.848689
33.100000 -96.800000 3.852137
33.400000 -96.800000 3.842395
33.700000 -96.800000 3.836508
34.000000 -96.800000 3.833695
34.300000 -96.800000 3.849470
34.600000 -96.800000 3.864248
34.900000 -96.800000 3.885739
35.200000 -96.800000 3.905546
35.500000 -96.800000 3.909460
35.800000 -96.800000 3.906267
36.100000 -96.800000 3.897838
36.400000 -96.800000 3.893859
36.700000 -96.800000 3.891974
37.000000 -96.800000 3.891918
37.300000 -96.800000 3.895336
37.600000 -96.800000 3.899327
37.900000 -96.800000 3.898598
38.200000 -96.800000 3.895053
38.500000 -96.800000 3.893861
38.800000 -96.800000 3.891725
39.100000 -96.800000 3.890483
39.400000 -96.800000 3.885853
39.700000 -96.800000 3.877093
40.000000 -96.800000 3.862146
40.300000 -96.800000 3.847638
40.600000 -96.800000 3.845093
40.900000 -96.800000 3.854870
41.200000 -96.800000 3.871417
41.500000 -96.800000 3.890405
41.800000 -96.800000 3.903901
42.100000 -96.800000 3.902320
42.400000 -96.800000 3.891003
42.700000 -96.800000 3.872598
43.000000 -96.800000 3.870054
43.300000 -96.800000 3.870947
43.600000 -96.800000 3.891486
43.900000 -96.800000 3.914879
44.200000 -96.800000 3.929039
44.500000 -96.800000 3.942898
44.800000 -96.800000 3.944081
45.100000 -96.800000 3.942836
45.400000 -96.800000 3.946461
45.700000 -96.800000 3.957870
46.000000 -96.800000 3.969131
46.300000 -96.800000 3.978598
46.600000 -96.800000 3.981246
46.900000 -96.800000 3.984056
47.200000 -96.800000 3.984975
47.500000 -96.800000 3.976836
47.800000 -96.800000 3.966294
48.100000 -96.800000 3.950232
48.400000 -96.800000 3.937951
48.700000 -96.800000 3.925919
28.600000 -96.500000 3.707914
28.900000 -96.500000 3.711049
29.200000 -96.500000 3.758179
29.500000 -96.500000 3.795278
29.800000 -96.500000 3.817307
30.100000 -96.500000 3.829121
30.400000 -96.500000 3.843023
30.700000 -96.500000 3.852392
31.000000 -96.500000 3.857888
31.300000 -96.500000 3.861914
31.600000 -96.500000 3.867272
31.900000 -96.500000 3.874511
32.200000 -96.500000 3.868082
32.500000 -96.500000 3.854070
32.800000 -96.500000 3.851759
33.100000 -96.500000 3.855912
33.400000 -96.500000 3.848394
33.700000 -96.500000 3.841693
34.000000 -96.500000 3.835919
34.300000 -96.500000 3.847304
34.600000 -96.500000 3.864451
34.900000 -96.500000 3.885864
35.200000 -96.500000 3.905521
35.500000 -96.500000 3.912106
35.800000 -96.500000 3.906336
36.100000 -96.500000 3.898521
36.400000 -96.500000 3.891843
36.700000 -96.500000 3.889885
37.000000 -96.500000 3.892975
37.300000 -96.500000 3.898713
37.600000 -96.500000 3.904832
37.900000 -96.500000 3.908189
38.200000 -96.500000 3.910682
38.500000 -96.500000 3.914032
38.800000 -96.500000 3.914951
39.100000 -96.500000 3.916531
39.400000 -96.500000 3.907568
39.700000 -96.500000 3.894147
40.000000 -96.500000 3.875917
40.300000 -96.500000 3.854766
40.600000 -96.500000 3.847812
40.900000 -96.500000 3.851033
41.200000 -96.500000 3.862001
41.500000 -96.500000 3.883093
41.800000 -96.500000 3.898437
42.100000 -96.500000 3.904393
42.400000 -96.500000 3.898643
42.700000 -96.500000 3.879604
43.000000 -96.500000 3.873291
43.300000 -96.500000 3.874556
43.600000 -96.500000 3.888396
43.900000 -96.500000 3.908729
44.200000 -96.500000 3.919833
44.500000 -96.500000 3.932897
44.800000 -96.500000 3.933973
45.100000 -96.500000 3.936144
45.400000 -96.500000 3.937334
45.700000 -96.500000 3.949157
46.000000 -96.500000 3.960037
46.300000 -96.500000 3.972360
46.600000 -96.500000 3.979077
46.900000 -96.500000 3.984179
47.200000 -96.500000 3.986439
47.500000 -96.500000 3.981948
47.800000 -96.500000 3.970651
48.100000 -96.500000 3.955571
48.400000 -96.500000 3.944954
48.700000 -96.500000 3.936013
28.900000 -96.200000 3.678154
29.200000 -96.200000 3.727982
29.500000 -96.200000 3.764017
29.800000 -96.200000 3.794502
30.100000 -96.200000 3.806118
30.400000 -96.200000 3.822098
30.700000 -96.200000 3.834973
31.000000 -96.200000 3.847395
31.300000 -96.200000 3.852490
31.600000 -96.200000 3.858378
31.900000 -96.200000 3.861605
32.200000 -96.200000 3.858789
32.500000 -96.200000 3.847692
32.800000 -96.200000 3.847103
33.100000 -96.200000 3.855111
33.400000 -96.200000 3.849211
33.700000 -96.200000 3.843007
34.000000 -96.200000 3.835287
34.300000 -96.200000 3.832276
34.600000 -96.200000 3.849670
34.900000 -96.200000 3.875075
35.200000 -96.200000 3.896636
35.500000 -96.200000 3.908956
35.800000 -96.200000 3.908095
36.100000 -96.200000 3.902208
36.400000 -96.200000 3.894971
36.700000 -96.200000 3.891265
37.000000 -96.200000 3.895698
37.300000 -96.200000 3.901577
37.600000 -96.200000 3.909062
37.900000 -96.200000 3.915064
38.200000 -96.200000 3.922423
38.500000 -96.200000 3.928330
38.800000 -96.200000 3.932514
39.100000 -96.200000 3.935155
39.400000 -96.200000 3.926154
39.700000 -96.200000 3.910688
40.000000 -96.200000 3.888449
40.300000 -96.200000 3.861322
40.600000 -96.200000 3.848224
40.900000 -96.200000 3.845035
41.200000 -96.200000 3.850158
41.500000 -96.200000 3.869088
41.800000 -96.200000 3.885678
42.100000 -96.200000 3.897593
42.400000 -96.200000 3.897928
42.700000 -96.200000 3.887163
43.000000 -96.200000 3.879634
43.300000 -96.200000 3.881443
43.600000 -96.200000 3.886960
43.900000 -96.200000 3.905754
44.200000 -96.200000 3.915237
44.500000 -96.200000 3.925582
44.800000 -96.200000 3.924041
45.100000 -96.200000 3.927485
45.400000 -96.200000 3.928733
45.700000 -96.200000 3.938853
46.000000 -96.200000 3.950073
46.300000 -96.200000 3.965527
46.600000 -96.200000 3.975767
46.900000 -96.200000 3.983208
47.200000 -96.200000 3.986767
47.500000 -96.200000 3.984364
47.800000 -96.200000 3.974411
48.100000 -96.200000 3.960801
48.400000 -96.200000 3.947827
48.700000 -96.200000 3.943474
28.600000 -95.900000 3.614090
28.900000 -95.900000 3.654285
29.200000 -95.900000 3.691758
29.500000 -95.900000 3.728185
29.800000 -95.900000 3.772637
30.100000 -95.900000 3.787472
30.400000 -95.900000 3.806874
30.700000 -95.900000 3.822787
31.000000 -95.900000 3.840012
31.300000 -95.900000 3.844866
31.600000 -95.900000 3.845842
31.900000 -95.900000 3.844805
32.200000 -95.900000 3.844544
32.500000 -95.900000 3.835257
32.800000 -95.900000 3.838590
33.100000 -95.900000 3.851038
33.400000 -95.900000 3.849986
33.700000 -95.900000 3.844944
34.000000 -95.900000 3.827688
34.300000 -95.900000 3.816559
34.600000 -95.900000 3.828519
34.900000 -95.900000 3.858051
35.200000 -95.900000 3.884424
35.500000 -95.900000 3.904576
35.800000 -95.900000 3.913226
36.100000 -95.900000 3.909783
36.400000 -95.900000 3.902528
36.700000 -95.900000 3.896196
37.000000 -95.900000 3.898960
37.300000 -95.900000 3.902865
37.600000 -95.900000 3.910630
37.900000 -95.900000 3.919052
38.200000 -95.900000 3.928332
38.500000 -95.900000 3.934464
38.800000 -95.900000 3.939985
39.100000 -95.900000 3.942668
39.400000 -95.900000 3.937487
39.700000 -95.900000 3.920904
40.000000 -95.900000 3.898506
40.300000 -95.900000 3.868115
40.600000 -95.900000 3.846184
40.900000 -95.900000 3.834455
41.200000 -95.900000 3.834545
41.500000 -95.900000 3.849075
41.800000 -95.900000 3.866352
42.100000 -95.900000 3.883699
42.400000 -95.900000 3.890090
42.700000 -95.900000 3.886878
43.000000 -95.900000 3.884959
43.300000 -95.900000 3.887217
43.600000 -95.900000 3.891825
43.900000 -95.900000 3.912486
44.200000 -95.900000 3.918523
44.500000 -95.900000 3.924165
44.800000 -95.900000 3.918314
45.100000 -95.900000 3.919601
45.400000 -95.900000 3.919474
45.700000 -95.900000 3.926821
46.000000 -95.900000 3.939010
46.300000 -95.900000 3.958018
46.600000 -95.900000 3.970316
46.900000 -95.900000 3.980596
47.200000 -95.900000 3.985694
47.500000 -95.900000 3.985840
47.800000 -95.900000 3.977025
48.100000 -95.900000 3.968742
48.400000 -95.900000 3.954967
48.700000 -95.900000 3.948064
29.200000 -95.600000 3.675463
29.500000 -95.600000 3.697335
29.800000 -95.600000 3.759512
30.100000 -95.600000 3.780555
30.400000 -95.600000 3.803216
30.700000 -95.600000 3.823886
31.000000 -95.600000 3.839712
31.300000 -95.600000 3.841936
31.600000 -95.600000 3.837038
31.900000 -95.600000 3.830806
32.200000 -95.600000 3.830136
32.500000 -95.600000 3.825478
32.800000 -95.600000 3.828057
33.100000 -95.600000 3.848163
33.400000 -95.600000 3.854290
33.700000 -95.600000 3.851440
34.000000 -95.600000 3.823834
34.300000 -95.600000 3.804334
34.600000 -95.600000 3.808364
34.900000 -95.600000 3.838152
35.200000 -95.600000 3.872189
35.500000 -95.600000 3.901482
35.800000 -95.600000 3.922294
36.100000 -95.600000 3.920209
36.400000 -95.600000 3.911452
36.700000 -95.600000 3.903583
37.000000 -95.600000 3.902116
37.300000 -95.600000 3.904322
37.600000 -95.600000 3.908151
37.900000 -95.600000 3.917115
38.200000 -95.600000 3.926116
38.500000 -95.600000 3.932874
38.800000 -95.600000 3.937312
39.100000 -95.600000 3.939603
39.400000 -95.600000 3.938177
39.700000 -95.600000 3.925702
40.000000 -95.600000 3.904743
40.300000 -95.600000 3.870612
40.600000 -95.600000 3.846080
40.900000 -95.600000 3.827823
41.200000 -95.600000 3.823250
41.500000 -95.600000 3.830745
41.800000 -95.600000 3.844590
42.100000 -95.600000 3.860694
42.400000 -95.600000 3.873013
42.700000 -95.600000 3.879150
43.000000 -95.600000 3.885229
43.300000 -95.600000 3.889282
43.600000 -95.600000 3.898262
43.900000 -95.600000 3.921395
44.200000 -95.600000 3.928225
44.500000 -95.600000 3.925484
44.800000 -95.600000 3.915908
45.100000 -95.600000 3.913042
45.400000 -95.600000 3.910318
45.700000 -95.600000 3.915911
46.000000 -95.600000 3.928612
46.300000 -95.600000 3.948348
46.600000 -95.600000 3.964225
46.900000 -95.600000 3.975679
47.200000 -95.600000 3.982767
47.500000 -95.600000 3.985789
47.800000 -95.600000 3.983218
48.100000 -95.600000 3.978640
48.400000 -95.600000 3.964730
48.700000 -95.600000 3.957295
29.500000 -95.300000 3.687078
29.800000 -95.300000 3.752720
30.100000 -95.300000 3.783375
30.400000 -95.300000 3.810408
30.700000 -95.300000 3.834068
31.000000 -95.300000 3.844556
31.300000 -95.300000 3.844746
31.600000 -95.300000 3.834471
31.900000 -95.300000 3.826786
32.200000 -95.300000 3.825995
32.500000 -95.300000 3.823287
32.800000 -95.300000 3.826171
33.100000 -95.300000 3.849745
33.400000 -95.300000 3.861242
33.700000 -95.300000 3.861759
34.000000 -95.300000 3.825061
34.300000 -95.300000 3.802175
34.600000 -95.300000 3.795327
34.900000 -95.300000 3.821846
35.200000 -95.300000 3.862829
35.500000 -95.300000 3.902121
35.800000 -95.300000 3.930849
36.100000 -95.300000 3.931546
36.400000 -95.300000 3.920743
36.700000 -95.300000 3.911458
37.000000 -95.300000 3.905428
37.300000 -95.300000 3.904672
37.600000 -95.300000 3.905369
37.900000 -95.300000 3.913063
38.200000 -95.300000 3.919242
38.500000 -95.300000 3.924200
38.800000 -95.300000 3.927393
39.100000 -95.300000 3.929814
39.400000 -95.300000 3.929720
39.700000 -95.300000 3.920845
40.000000 -95.300000 3.903875
40.300000 -95.300000 3.875329
40.600000 -95.300000 3.850849
40.900000 -95.300000 3.826614
41.200000 -95.300000 3.816161
41.500000 -95.300000 3.816386
41.800000 -95.300000 3.823490
42.100000 -95.300000 3.837285
42.400000 -95.300000 3.852402
42.700000 -95.300000 3.865922
43.000000 -95.300000 3.878532
43.300000 -95.300000 3.889492
43.600000 -95.300000 3.904215
43.900000 -95.300000 3.927350
44.200000 -95.300000 3.934616
44.500000 -95.300000 3.926702
44.800000 -95.300000 3.915864
45.100000 -95.300000 3.907924
45.400000 -95.300000 3.902967
45.700000 -95.300000 3.905908
46.000000 -95.300000 3.918376
46.300000 -95.300000 3.936976
46.600000 -95.300000 3.955960
46.900000 -95.300000 3.968659
47.200000 -95.300000 3.978201
47.500000 -95.300000 3.986439
47.800000 -95.300000 3.988296
48.100000 -95.300000 3.988955
48.400000 -95.300000 3.981262
48.700000 -95.300000 3.963979
29.800000 -95.000000 3.751876
30.100000 -95.000000 3.793763
30.400000 -95.000000 3.823491
30.700000 -95.000000 3.848251
31.000000 -95.000000 3.854336
31.300000 -95.000000 3.852988
31.600000 -95.000000 3.844892
31.900000 -95.000000 3.835850
32.200000 -95.000000 3.831532
32.500000 -95.000000 3.830538
32.800000 -95.000000 3.831122
33.100000 -95.000000 3.853458
33.400000 -95.000000 3.868763
33.700000 -95.000000 3.869812
34.000000 -95.000000 3.833288
34.300000 -95.000000 3.802786
34.600000 -95.000000 3.789881
34.900000 -95.000000 3.812585
35.200000 -95.000000 3.857145
35.500000 -95.000000 3.901247
35.800000 -95.000000 3.934980
36.100000 -95.000000 3.937047
36.400000 -95.000000 3.927771
36.700000 -95.000000 3.916102
37.000000 -95.000000 3.908572
37.300000 -95.000000 3.906314
37.600000 -95.000000 3.904367
37.900000 -95.000000 3.909109
38.200000 -95.000000 3.911962
38.500000 -95.000000 3.913391
38.800000 -95.000000 3.915566
39.100000 -95.000000 3.916169
39.400000 -95.000000 3.915908
39.700000 -95.000000 3.912938
40.000000 -95.000000 3.899459
40.300000 -95.000000 3.879071
40.600000 -95.000000 3.857615
40.900000 -95.000000 3.833182
41.200000 -95.000000 3.816390
41.500000 -95.000000 3.811361
41.800000 -95.000000 3.809386
42.100000 -95.000000 3.819897
42.400000 -95.000000 3.834863
42.700000 -95.000000 3.852341
43.000000 -95.000000 3.869227
43.300000 -95.000000 3.886460
43.600000 -95.000000 3.901335
43.900000 -95.000000 3.923298
44.200000 -95.000000 3.932058
44.500000 -95.000000 3.920459
44.800000 -95.000000 3.913604
45.100000 -95.000000 3.903059
45.400000 -95.000000 3.896843
45.700000 -95.000000 3.898256
46.000000 -95.000000 3.909028
46.300000 -95.000000 3.923867
46.600000 -95.000000 3.945042
46.900000 -95.000000 3.958004
47.200000 -95.000000 3.973027
47.500000 -95.000000 3.984270
47.800000 -95.000000 3.990445
48.100000 -95.000000 3.997896
48.400000 -95.000000 3.995084
30.100000 -94.700000 3.801705
30.400000 -94.700000 3.833399
30.700000 -94.700000 3.859744
31.000000 -94.700000 3.865430
31.300000 -94.700000 3.865461
31.600000 -94.700000 3.860504
31.900000 -94.700000 3.852717
32.200000 -94.700000 3.841997
32.500000 -94.700000 3.838702
32.800000 -94.700000 3.841101
33.100000 -94.700000 3.860147
33.400000 -94.700000 3.872472
33.700000 -94.700000 3.872599
34.000000 -94.700000 3.840149
34.300000 -94.700000 3.807471
34.600000 -94.700000 3.790641
34.900000 -94.700000 3.811065
35.200000 -94.700000 3.854632
35.500000 -94.700000 3.898442
35.800000 -94.700000 3.931294
36.100000 -94.700000 3.938204
36.400000 -94.700000 3.929485
36.700000 -94.700000 3.917858
37.000000 -94.700000 3.910157
37.300000 -94.700000 3.908282
37.600000 -94.700000 3.906750
37.900000 -94.700000 3.909018
38.200000 -94.700000 3.907994
38.500000 -94.700000 3.905097
38.800000 -94.700000 3.905526
39.100000 -94.700000 3.903358
39.400000 -94.700000 3.904050
39.700000 -94.700000 3.904222
40.000000 -94.700000 3.895116
40.300000 -94.700000 3.885054
40.600000 -94.700000 3.865527
40.900000 -94.700000 3.840599
41.200000 -94.700000 3.821058
41.500000 -94.700000 3.810853
41.800000 -94.700000 3.802959
42.100000 -94.700000 3.811694
42.400000 -94.700000 3.825552
42.700000 -94.700000 3.841960
43.000000 -94.700000 3.861893
43.300000 -94.700000 3.880807
43.600000 -94.700000 3.890728
43.900000 -94.700000 3.909605
44.200000 -94.700000 3.919805
44.500000 -94.700000 3.911233
44.800000 -94.700000 3.906307
45.100000 -94.700000 3.896117
45.400000 -94.700000 3.891317
45.700000 -94.700000 3.891019
46.000000 -94.700000 3.898689
46.300000 -94.700000 3.911903
46.600000 -94.700000 3.929781
46.900000 -94.700000 3.946043
47.200000 -94.700000 3.964629
47.500000 -94.700000 3.978284
47.800000 -94.700000 3.986190
48.100000 -94.700000 4.001497
48.400000 -94.700000 4.002659
30.100000 -94.400000 3.803797
30.400000 -94.400000 3.834523
30.700000 -94.400000 3.863233
31.000000 -94.400000 3.872967
31.300000 -94.400000 3.875964
31.600000 -94.400000 3.874977
31.900000 -94.400000 3.864856
32.200000 -94.400000 3.851057
32.500000 -94.400000 3.844486
32.800000 -94.400000 3.847529
33.100000 -94.400000 3.862327
33.400000 -94.400000 3.872547
33.700000 -94.400000 3.870748
34.000000 -94.400000 3.842238
34.300000 -94.400000 3.815710
34.600000 -94.400000 3.797112
34.900000 -94.400000 3.813859
35.200000 -94.400000 3.852960
35.500000 -94.400000 3.892334
35.800000 -94.400000 3.923158
36.100000 -94.400000 3.932793
36.400000 -94.400000 3.926849
36.700000 -94.400000 3.915166
37.000000 -94.400000 3.907673
37.300000 -94.400000 3.908060
37.600000 -94.400000 3.907171
37.900000 -94.400000 3.908251
38.200000 -94.400000 3.907528
38.500000 -94.400000 3.901112
38.800000 -94.400000 3.899870
39.100000 -94.400000 3.893893
39.400000 -94.400000 3.896609
39.700000 -94.400000 3.897339
40.000000 -94.400000 3.892617
40.300000 -94.400000 3.886364
40.600000 -94.400000 3.869344
40.900000 -94.400000 3.847689
41.200000 -94.400000 3.828102
41.500000 -94.400000 3.816298
41.800000 -94.400000 3.806273
42.100000 -94.400000 3.813605
42.400000 -94.400000 3.823866
42.700000 -94.400000 3.839486
43.000000 -94.400000 3.857656
43.300000 -94.400000 3.873243
43.600000 -94.400000 3.877197
43.900000 -94.400000 3.889886
44.200000 -94.400000 3.897297
44.500000 -94.400000 3.893123
44.800000 -94.400000 3.890902
45.100000 -94.400000 3.886099
45.400000 -94.400000 3.885522
45.700000 -94.400000 3.885872
46.000000 -94.400000 3.891152
46.300000 -94.400000 3.901185
46.600000 -94.400000 3.917338
46.900000 -94.400000 3.935817
47.200000 -94.400000 3.955406
47.500000 -94.400000 3.969629
47.800000 -94.400000 3.982000
48.100000 -94.400000 3.999274
30.100000 -94.100000 3.790282
30.400000 -94.100000 3.820925
30.700000 -94.100000 3.851555
31.000000 -94.100000 3.873914
31.300000 -94.100000 3.879900
31.600000 -94.100000 3.879030
31.900000 -94.100000 3.871606
32.200000 -94.100000 3.856584
32.500000 -94.100000 3.848902
32.800000 -94.100000 3.848989
33.100000 -94.100000 3.861180
33.400000 -94.100000 3.869034
33.700000 -94.100000 3.868447
34.000000 -94.100000 3.847505
34.300000 -94.100000 3.825212
34.600000 -94.100000 3.806888
34.900000 -94.100000 3.822797
35.200000 -94.100000 3.853946
35.500000 -94.100000 3.887506
35.800000 -94.100000 3.914351
36.100000 -94.100000 3.925595
36.400000 -94.100000 3.920721
36.700000 -94.100000 3.908262
37.000000 -94.100000 3.901308
37.300000 -94.100000 3.903237
37.600000 -94.100000 3.904752
37.900000 -94.100000 3.907346
38.200000 -94.100000 3.908196
38.500000 -94.100000 3.904377
38.800000 -94.100000 3.900122
39.100000 -94.100000 3.892686
39.400000 -94.100000 3.894016
39.700000 -94.100000 3.893406
40.000000 -94.100000 3.892060
40.300000 -94.100000 3.884349
40.600000 -94.100000 3.874398
40.900000 -94.100000 3.856109
41.200000 -94.100000 3.839273
41.500000 -94.100000 3.825504
41.800000 -94.100000 3.818085
42.100000 -94.100000 3.825369
42.400000 -94.100000 3.833695
42.700000 -94.100000 3.845812
43.000000 -94.100000 3.858654
43.300000 -94.100000 3.867649
43.600000 -94.100000 3.865322
43.900000 -94.100000 3.871043
44.200000 -94.100000 3.872770
44.500000 -94.100000 3.869495
44.800000 -94.100000 3.866906
45.100000 -94.100000 3.869971
45.400000 -94.100000 3.876193
45.700000 -94.100000 3.880438
46.000000 -94.100000 3.886340
46.300000 -94.100000 3.895499
46.600000 -94.100000 3.909128
46.900000 -94.100000 3.928503
47.200000 -94.100000 3.945656
47.500000 -94.100000 3.960938
47.800000 -94.100000 3.980173
48.100000 -94.100000 3.992662
30.100000 -93.800000 3.777682
30.400000 -93.800000 3.796775
30.700000 -93.800000 3.834022
31.000000 -93.800000 3.861997
31.300000 -93.800000 3.872462
31.600000 -93.800000 3.875406
31.900000 -93.800000 3.869441
32.200000 -93.800000 3.860765
32.500000 -93.800000 3.851112
32.800000 -93.800000 3.847597
33.100000 -93.800000 3.858232
33.400000 -93.800000 3.865031
33.700000 -93.800000 3.867860
34.000000 -93.800000 3.855541
34.300000 -93.800000 3.835897
34.600000 -93.800000 3.818992
34.900000 -93.800000 3.831273
35.200000 -93.800000 3.856393
35.500000 -93.800000 3.884857
35.800000 -93.800000 3.908877
36.100000 -93.800000 3.917538
36.400000 -93.800000 3.912912
36.700000 -93.800000 3.899902
37.000000 -93.800000 3.892096
37.300000 -93.800000 3.893384
37.600000 -93.800000 3.899050
37.900000 -93.800000 3.905372
38.200000 -93.800000 3.910655
38.500000 -93.800000 3.911553
38.800000 -93.800000 3.907232
39.100000 -93.800000 3.898396
39.400000 -93.800000 3.894421
39.700000 -93.800000 3.890863
40.000000 -93.800000 3.888560
40.300000 -93.800000 3.881722
40.600000 -93.800000 3.878951
40.900000 -93.800000 3.865871
41.200000 -93.800000 3.852466
41.500000 -93.800000 3.840080
41.800000 -93.800000 3.837144
42.100000 -93.800000 3.847444
42.400000 -93.800000 3.851402
42.700000 -93.800000 3.859146
43.000000 -93.800000 3.864216
43.300000 -93.800000 3.863981
43.600000 -93.800000 3.858122
43.900000 -93.800000 3.855054
44.200000 -93.800000 3.848143
44.500000 -93.800000 3.842025
44.800000 -93.800000 3.839515
45.100000 -93.800000 3.849745
45.400000 -93.800000 3.861844
45.700000 -93.800000 3.871335
46.000000 -93.800000 3.884258
46.300000 -93.800000 3.893336
46.600000 -93.800000 3.907015
46.900000 -93.800000 3.923391
47.200000 -93.800000 3.937232
47.500000 -93.800000 3.951740
48.100000 -93.800000 3.980547
30.100000 -93.500000 3.764311
30.400000 -93.500000 3.776774
30.700000 -93.500000 3.806802
31.000000 -93.500000 3.838293
31.300000 -93.500000 3.856033
31.600000 -93.500000 3.864942
31.900000 -93.500000 3.867975
32.200000 -93.500000 3.861594
32.500000 -93.500000 3.851283
32.800000 -93.500000 3.844950
33.100000 -93.500000 3.853801
33.400000 -93.500000 3.861979
33.700000 -93.500000 3.868747
34.000000 -93.500000 3.865328
34.300000 -93.500000 3.846829
34.600000 -93.500000 3.832863
34.900000 -93.500000 3.842883
35.200000 -93.500000 3.861625
35.500000 -93.500000 3.886311
35.800000 -93.500000 3.905809
36.100000 -93.500000 3.911019
36.400000 -93.500000 3.905946
36.700000 -93.500000 3.891771
37.000000 -93.500000 3.882994
37.300000 -93.500000 3.882966
37.600000 -93.500000 3.891963
37.900000 -93.500000 3.904215
38.200000 -93.500000 3.913828
38.500000 -93.500000 3.920203
38.800000 -93.500000 3.916459
39.100000 -93.500000 3.907776
39.400000 -93.500000 3.897222
39.700000 -93.500000 3.890898
40.000000 -93.500000 3.888466
40.300000 -93.500000 3.880967
40.600000 -93.500000 3.886775
40.900000 -93.500000 3.876127
41.200000 -93.500000 3.866336
41.500000 -93.500000 3.855407
41.800000 -93.500000 3.860893
42.100000 -93.500000 3.873210
42.400000 -93.500000 3.875764
42.700000 -93.500000 3.877442
43.000000 -93.500000 3.876305
43.300000 -93.500000 3.866846
43.600000 -93.500000 3.854879
43.900000 -93.500000 3.842911
44.200000 -93.500000 3.830470
44.500000 -93.500000 3.821858
44.800000 -93.500000 3.816084
45.100000 -93.500000 3.832382
45.400000 -93.500000 3.845773
45.700000 -93.500000 3.855088
46.000000 -93.500000 3.878349
46.300000 -93.500000 3.892820
46.600000 -93.500000 3.905605
46.900000 -93.500000 3.920351
47.200000 -93.500000 3.931567
47.500000 -93.500000 3.942863
47.800000 -93.500000 3.959603
48.100000 -93.500000 3.975671
29.800000 -93.200000 3.780196
30.100000 -93.200000 3.761879
30.400000 -93.200000 3.756829
30.700000 -93.200000 3.785774
31.000000 -93.200000 3.810418
31.300000 -93.200000 3.836091
31.600000 -93.200000 3.853892
31.900000 -93.200000 3.863253
32.200000 -93.200000 3.859267
32.500000 -93.200000 3.848215
32.800000 -93.200000 3.841118
33.100000 -93.200000 3.850599
33.400000 -93.200000 3.859365
33.700000 -93.200000 3.868655
34.000000 -93.200000 3.871322
34.300000 -93.200000 3.859188
34.600000 -93.200000 3.845770
34.900000 -93.200000 3.850028
35.200000 -93.200000 3.866725
35.500000 -93.200000 3.889765
35.800000 -93.200000 3.905019
36.100000 -93.200000 3.906450
36.400000 -93.200000 3.898184
36.700000 -93.200000 3.885588
37.000000 -93.200000 3.874521
37.300000 -93.200000 3.874985
37.600000 -93.200000 3.887458
37.900000 -93.200000 3.904877
38.200000 -93.200000 3.916709
38.500000 -93.200000 3.925915
38.800000 -93.200000 3.922864
39.100000 -93.200000 3.915123
39.400000 -93.200000 3.901183
39.700000 -93.200000 3.892214
40.000000 -93.200000 3.890439
40.300000 -93.200000 3.885040
40.600000 -93.200000 3.894455
40.900000 -93.200000 3.886340
41.200000 -93.200000 3.878917
41.500000 -93.200000 3.873853
41.800000 -93.200000 3.882570
42.100000 -93.200000 3.896293
42.400000 -93.200000 3.899441
42.700000 -93.200000 3.898477
43.000000 -93.200000 3.892618
43.300000 -93.200000 3.876538
43.600000 -93.200000 3.856643
43.900000 -93.200000 3.838115
44.200000 -93.200000 3.820636
44.500000 -93.200000 3.811062
44.800000 -93.200000 3.805488
45.100000 -93.200000 3.823970
45.400000 -93.200000 3.829236
45.700000 -93.200000 3.841461
46.000000 -93.200000 3.868334
46.300000 -93.200000 3.891106
46.600000 -93.200000 3.908097
46.900000 -93.200000 3.919984
47.200000 -93.200000 3.928769
47.500000 -93.200000 3.937944
47.800000 -93.200000 3.959603
29.800000 -92.900000 3.780196
30.100000 -92.900000 3.755525
30.400000 -92.900000 3.748514
30.700000 -92.900000 3.769535
31.000000 -92.900000 3.790597
31.300000 -92.900000 3.818517
31.600000 -92.900000 3.842858
31.900000 -92.900000 3.859205
32.200000 -92.900000 3.856778
32.500000 -92.900000 3.843755
32.800000 -92.900000 3.836224
33.100000 -92.900000 3.843432
33.400000 -92.900000 3.855312
33.700000 -92.900000 3.867071
34.000000 -92.900000 3.871410
34.300000 -92.900000 3.867150
34.600000 -92.900000 3.855777
34.900000 -92.900000 3.860212
35.200000 -92.900000 3.873010
35.500000 -92.900000 3.892641
35.800000 -92.900000 3.904218
36.100000 -92.900000 3.902682
36.400000 -92.900000 3.892357
36.700000 -92.900000 3.881922
37.000000 -92.900000 3.871074
37.300000 -92.900000 3.872488
37.600000 -92.900000 3.886311
37.900000 -92.900000 3.905768
38.200000 -92.900000 3.918744
38.500000 -92.900000 3.927064
38.800000 -92.900000 3.925141
39.100000 -92.900000 3.918573
39.400000 -92.900000 3.905390
39.700000 -92.900000 3.896885
40.000000 -92.900000 3.895150
40.300000 -92.900000 3.891605
40.600000 -92.900000 3.903569
40.900000 -92.900000 3.898573
41.200000 -92.900000 3.890435
41.500000 -92.900000 3.887208
41.800000 -92.900000 3.900065
42.100000 -92.900000 3.917061
42.400000 -92.900000 3.923139
42.700000 -92.900000 3.920658
43.000000 -92.900000 3.913361
43.300000 -92.900000 3.893635
43.600000 -92.900000 3.867567
43.900000 -92.900000 3.843293
44.200000 -92.900000 3.824717
44.500000 -92.900000 3.812352
44.800000 -92.900000 3.810584
45.100000 -92.900000 3.825739
45.400000 -92.900000 3.830173
45.700000 -92.900000 3.837734
46.000000 -92.900000 3.860018
46.300000 -92.900000 3.890250
46.600000 -92.900000 3.913575
46.900000 -92.900000 3.925304
47.200000 -92.900000 3.933378
47.500000 -92.900000 3.937892
30.100000 -92.600000 3.752155
30.400000 -92.600000 3.743396
30.700000 -92.600000 3.767115
31.000000 -92.600000 3.783544
31.300000 -92.600000 3.807941
31.600000 -92.600000 3.834369
31.900000 -92.600000 3.855022
32.200000 -92.600000 3.854024
32.500000 -92.600000 3.842252
32.800000 -92.600000 3.832117
33.100000 -92.600000 3.839340
33.400000 -92.600000 3.852788
33.700000 -92.600000 3.863701
34.000000 -92.600000 3.867390
34.300000 -92.600000 3.867559
34.600000 -92.600000 3.858827
34.900000 -92.600000 3.866794
35.200000 -92.600000 3.879812
35.500000 -92.600000 3.895916
35.800000 -92.600000 3.902836
36.100000 -92.600000 3.898112
36.400000 -92.600000 3.887379
36.700000 -92.600000 3.880082
37.000000 -92.600000 3.873345
37.300000 -92.600000 3.876532
37.600000 -92.600000 3.889352
37.900000 -92.600000 3.904055
38.200000 -92.600000 3.915687
38.500000 -92.600000 3.922703
38.800000 -92.600000 3.923264
39.100000 -92.600000 3.918462
39.400000 -92.600000 3.907693
39.700000 -92.600000 3.901691
40.000000 -92.600000 3.900927
40.300000 -92.600000 3.899754
40.600000 -92.600000 3.912545
40.900000 -92.600000 3.911102
41.200000 -92.600000 3.904043
41.500000 -92.600000 3.902031
41.800000 -92.600000 3.912910
42.100000 -92.600000 3.932954
42.400000 -92.600000 3.943694
42.700000 -92.600000 3.943221
43.000000 -92.600000 3.936195
43.300000 -92.600000 3.914813
43.600000 -92.600000 3.887102
43.900000 -92.600000 3.860825
44.200000 -92.600000 3.839603
44.500000 -92.600000 3.825734
44.800000 -92.600000 3.826645
45.100000 -92.600000 3.837573
45.400000 -92.600000 3.839375
45.700000 -92.600000 3.844815
46.000000 -92.600000 3.857363
46.300000 -92.600000 3.887327
46.600000 -92.600000 3.914979
46.900000 -92.600000 3.929131
47.200000 -92.600000 3.940547
47.500000 -92.600000 3.948474
47.800000 -92.600000 3.953169
29.800000 -92.300000 3.774264
30.100000 -92.300000 3.754034
30.400000 -92.300000 3.751284
30.700000 -92.300000 3.768759
31.000000 -92.300000 3.783425
31.300000 -92.300000 3.805021
31.600000 -92.300000 3.831833
31.900000 -92.300000 3.852848
32.200000 -92.300000 3.854781
32.500000 -92.300000 3.842885
32.800000 -92.300000 3.833585
33.100000 -92.300000 3.838828
33.400000 -92.300000 3.851008
33.700000 -92.300000 3.860186
34.000000 -92.300000 3.859817
34.300000 -92.300000 3.861173
34.600000 -92.300000 3.859711
34.900000 -92.300000 3.871897
35.200000 -92.300000 3.887449
35.500000 -92.300000 3.898442
35.800000 -92.300000 3.898186
36.100000 -92.300000 3.893147
36.400000 -92.300000 3.884496
36.700000 -92.300000 3.881091
37.000000 -92.300000 3.880515
37.300000 -92.300000 3.883708
37.600000 -92.300000 3.892851
37.900000 -92.300000 3.900099
38.200000 -92.300000 3.907000
38.500000 -92.300000 3.909466
38.800000 -92.300000 3.913108
39.100000 -92.300000 3.911514
39.400000 -92.300000 3.905466
39.700000 -92.300000 3.905837
40.000000 -92.300000 3.906272
40.300000 -92.300000 3.908275
40.600000 -92.300000 3.921880
40.900000 -92.300000 3.920952
41.200000 -92.300000 3.916531
41.500000 -92.300000 3.910897
41.800000 -92.300000 3.921985
42.100000 -92.300000 3.945175
42.400000 -92.300000 3.958542
42.700000 -92.300000 3.958821
43.000000 -92.300000 3.953727
43.300000 -92.300000 3.933410
43.600000 -92.300000 3.905714
43.900000 -92.300000 3.879992
44.200000 -92.300000 3.859170
44.500000 -92.300000 3.846037
44.800000 -92.300000 3.847357
45.100000 -92.300000 3.854818
45.400000 -92.300000 3.858783
45.700000 -92.300000 3.856260
46.000000 -92.300000 3.860921
46.300000 -92.300000 3.883754
46.600000 -92.300000 3.916027
46.900000 -92.300000 3.936663
47.200000 -92.300000 3.956059
47.500000 -92.300000 3.963240
47.800000 -92.300000 3.958802
29.800000 -92.000000 3.772105
30.100000 -92.000000 3.760304
30.400000 -92.000000 3.761322
30.700000 -92.000000 3.768747
31.000000 -92.000000 3.784099
31.300000 -92.000000 3.809644
31.600000 -92.000000 3.833624
31.900000 -92.000000 3.853862
32.200000 -92.000000 3.857945
32.500000 -92.000000 3.849409
32.800000 -92.000000 3.840025
33.100000 -92.000000 3.844141
33.400000 -92.000000 3.851960
33.700000 -92.000000 3.856767
34.000000 -92.000000 3.852506
34.300000 -92.000000 3.853664
34.600000 -92.000000 3.859301
34.900000 -92.000000 3.876936
35.200000 -92.000000 3.893058
35.500000 -92.000000 3.900189
35.800000 -92.000000 3.892180
36.100000 -92.000000 3.887622
36.400000 -92.000000 3.882495
36.700000 -92.000000 3.883451
37.000000 -92.000000 3.890813
37.300000 -92.000000 3.891428
37.600000 -92.000000 3.896010
37.900000 -92.000000 3.895031
38.200000 -92.000000 3.895088
38.500000 -92.000000 3.895288
38.800000 -92.000000 3.896853
39.100000 -92.000000 3.900301
39.400000 -92.000000 3.899036
39.700000 -92.000000 3.904031
40.000000 -92.000000 3.909498
40.300000 -92.000000 3.916854
40.600000 -92.000000 3.926803
40.900000 -92.000000 3.925081
41.200000 -92.000000 3.921569
41.500000 -92.000000 3.918185
41.800000 -92.000000 3.929040
42.100000 -92.000000 3.948579
42.400000 -92.000000 3.961414
42.700000 -92.000000 3.963448
43.000000 -92.000000 3.959899
43.300000 -92.000000 3.942437
43.600000 -92.000000 3.916495
43.900000 -92.000000 3.893293
44.200000 -92.000000 3.873710
44.500000 -92.000000 3.867978
44.800000 -92.000000 3.867546
45.100000 -92.000000 3.874118
45.400000 -92.000000 3.874039
45.700000 -92.000000 3.871684
46.000000 -92.000000 3.867906
46.300000 -92.000000 3.880610
46.600000 -92.000000 3.913718
46.900000 -92.000000 3.943192
47.200000 -92.000000 3.963875
47.500000 -92.000000 3.979402
47.800000 -92.000000 3.969165
29.800000 -91.700000 3.774804
30.100000 -91.700000 3.773206
30.400000 -91.700000 3.768802
30.700000 -91.700000 3.769976
31.000000 -91.700000 3.786474
31.300000 -91.700000 3.815606
31.600000 -91.700000 3.838654
31.900000 -91.700000 3.858416
32.200000 -91.700000 3.866064
32.500000 -91.700000 3.859658
32.800000 -91.700000 3.851193
33.100000 -91.700000 3.851157
33.400000 -91.700000 3.851731
33.700000 -91.700000 3.856383
34.000000 -91.700000 3.848691
34.300000 -91.700000 3.850758
34.600000 -91.700000 3.862934
34.900000 -91.700000 3.881543
35.200000 -91.700000 3.895387
35.500000 -91.700000 3.897254
35.800000 -91.700000 3.887146
36.100000 -91.700000 3.884235
36.400000 -91.700000 3.882392
36.700000 -91.700000 3.887903
37.000000 -91.700000 3.899948
37.300000 -91.700000 3.898612
37.600000 -91.700000 3.898454
37.900000 -91.700000 3.891857
38.200000 -91.700000 3.886249
38.500000 -91.700000 3.881975
38.800000 -91.700000 3.879708
39.100000 -91.700000 3.886140
39.400000 -91.700000 3.891041
39.700000 -91.700000 3.901033
40.000000 -91.700000 3.911518
40.300000 -91.700000 3.922245
40.600000 -91.700000 3.927300
40.900000 -91.700000 3.922606
41.200000 -91.700000 3.919413
41.500000 -91.700000 3.916770
41.800000 -91.700000 3.930536
42.100000 -91.700000 3.944270
42.400000 -91.700000 3.953249
42.700000 -91.700000 3.952613
43.000000 -91.700000 3.950602
43.300000 -91.700000 3.938431
43.600000 -91.700000 3.918300
43.900000 -91.700000 3.897440
44.200000 -91.700000 3.881577
44.500000 -91.700000 3.881856
44.800000 -91.700000 3.882736
45.100000 -91.700000 3.889889
45.400000 -91.700000 3.888784
45.700000 -91.700000 3.887477
46.000000 -91.700000 3.876960
46.300000 -91.700000 3.882047
46.600000 -91.700000 3.916180
46.900000 -91.700000 3.949254
47.200000 -91.700000 3.965768
47.500000 -91.700000 3.986150
47.800000 -91.700000 3.974090
29.800000 -91.400000 3.778995
30.100000 -91.400000 3.779139
30.400000 -91.400000 3.776556
30.700000 -91.400000 3.773638
31.000000 -91.400000 3.787835
31.300000 -91.400000 3.820404
31.600000 -91.400000 3.840931
31.900000 -91.400000 3.862859
32.200000 -91.400000 3.872141
32.500000 -91.400000 3.868533
32.800000 -91.400000 3.860713
33.100000 -91.400000 3.858650
33.400000 -91.400000 3.855393
33.700000 -91.400000 3.858603
34.000000 -91.400000 3.851170
34.300000 -91.400000 3.854559
34.600000 -91.400000 3.868300
34.900000 -91.400000 3.887038
35.200000 -91.400000 3.894281
35.500000 -91.400000 3.895552
35.800000 -91.400000 3.884635
36.100000 -91.400000 3.885429
36.400000 -91.400000 3.884224
36.700000 -91.400000 3.890122
37.000000 -91.400000 3.906351
37.300000 -91.400000 3.904631
37.600000 -91.400000 3.899266
37.900000 -91.400000 3.888321
38.200000 -91.400000 3.880128
38.500000 -91.400000 3.872483
38.800000 -91.400000 3.867071
39.100000 -91.400000 3.874921
39.400000 -91.400000 3.886028
39.700000 -91.400000 3.899646
40.000000 -91.400000 3.912078
40.300000 -91.400000 3.923906
40.600000 -91.400000 3.923147
40.900000 -91.400000 3.917062
41.200000 -91.400000 3.913730
41.500000 -91.400000 3.913768
41.800000 -91.400000 3.928790
42.100000 -91.400000 3.934468
42.400000 -91.400000 3.937775
42.700000 -91.400000 3.933053
43.000000 -91.400000 3.931608
43.300000 -91.400000 3.927492
43.600000 -91.400000 3.916871
43.900000 -91.400000 3.898689
44.200000 -91.400000 3.886538
44.500000 -91.400000 3.890637
44.800000 -91.400000 3.893285
45.100000 -91.400000 3.898382
45.400000 -91.400000 3.900252
45.700000 -91.400000 3.899787
46.000000 -91.400000 3.886446
46.300000 -91.400000 3.883627
47.200000 -91.400000 3.954826
47.500000 -91.400000 3.994372
29.800000 -91.100000 3.783492
30.100000 -91.100000 3.784775
30.400000 -91.100000 3.783380
30.700000 -91.100000 3.781026
31.000000 -91.100000 3.791871
31.300000 -91.100000 3.820414
31.600000 -91.100000 3.839379
31.900000 -91.100000 3.862112
32.200000 -91.100000 3.872832
32.500000 -91.100000 3.872284
32.800000 -91.100000 3.867171
33.100000 -91.100000 3.865916
33.400000 -91.100000 3.860542
33.700000 -91.100000 3.865146
34.000000 -91.100000 3.860750
34.300000 -91.100000 3.865504
34.600000 -91.100000 3.879497
34.900000 -91.100000 3.889921
35.200000 -91.100000 3.893030
35.500000 -91.100000 3.895846
35.800000 -91.100000 3.886698
36.100000 -91.100000 3.887126
